-331.718	-83.3412	958
-329.643	-83.3412	958
-327.569	-83.3412	958
-325.494	-83.3412	958
-323.42	-83.3412	958
-321.345	-83.3412	958
-319.604	-83.4282	959
-317.528	-83.4282	959
-315.451	-83.4282	959
-313.374	-83.4282	959
-376.952	-118.4	1361
-374.005	-118.4	1361
-371.058	-118.4	1361
-368.111	-118.4	1361
-365.432	-118.487	1362
-362.483	-118.487	1362
-360.061	-118.661	1364
-357.108	-118.661	1364
-353.635	-118.487	1362
-350.686	-118.487	1362
-403.65	-137.539	1581
-400.226	-137.539	1581
-396.803	-137.539	1581
-393.379	-137.539	1581
-389.956	-137.539	1581
-389.466	-138.583	1593
-386.016	-138.583	1593
-385.449	-139.627	1605
-378.498	-139.627	1605
-375.022	-139.627	1605
-372.704	-140.062	1610
-369.218	-140.062	1610
-365.731	-140.062	1610
-362.245	-140.062	1610
-358.09	-139.801	1607
-354.61	-139.801	1607
-351.131	-139.801	1607
-347.651	-139.801	1607
-342.672	-139.192	1600
-339.207	-139.192	1600
-336.792	-139.627	1605
-333.316	-139.627	1605
-291.792	-139.714	1606
-288.314	-139.714	1606
-284.836	-139.714	1606
-281.359	-139.714	1606
-278.054	-139.801	1607
-274.574	-139.801	1607
166.278	-62.3754	717
167.831	-62.3754	717
169.383	-62.3754	717
170.936	-62.3754	717
172.488	-62.3754	717
174.041	-62.3754	717
422.23	-138.931	1597
425.688	-138.931	1597
429.415	-139.018	1598
432.875	-139.018	1598
436.063	-138.931	1597
439.521	-138.931	1597
443.811	-139.192	1600
447.276	-139.192	1600
450.741	-139.192	1600
454.205	-139.192	1600
456.24	-138.757	1595
459.694	-138.757	1595
461.986	-138.409	1591
465.431	-138.409	1591
467.697	-138.061	1587
471.134	-138.061	1587
479.992	-136.669	1571
483.393	-136.669	1571
493.922	-138.67	1594
497.374	-138.67	1594
501.768	-138.931	1597
505.226	-138.931	1597
508.366	-138.844	1596
511.822	-138.844	1596
514.31	-138.583	1593
517.759	-138.583	1593
519.573	-138.148	1588
523.011	-138.148	1588
526.118	-138.061	1587
529.555	-138.061	1587
533.327	-138.148	1588
542.246	-138.67	1594
545.013	-138.496	1592
548.46	-138.496	1592
550.868	-138.235	1589
554.308	-138.235	1589
554.59	-137.452	1580
558.012	-137.452	1580
542.6	-132.841	1527
545.907	-132.841	1527
552.45	-133.624	1536
555.776	-133.624	1536
555.827	-132.841	1527
559.133	-132.841	1527
562.44	-132.841	1527
566.858	-133.102	1530
570.171	-133.102	1530
575.733	-133.624	1536
579.059	-133.624	1536
583.523	-133.885	1539
586.855	-133.885	1539
587.503	-133.276	1532
590.821	-133.276	1532
590.26	-132.406	1522
593.556	-132.406	1522
593.322	-131.623	1513
596.599	-131.623	1513
595.91	-130.754	1503
599.165	-130.754	1503
600.415	-130.319	1498
603.659	-130.319	1498
605.282	-129.971	1494
607.296	-129.71	1491
610.524	-129.71	1491
611.695	-129.275	1486
614.913	-129.275	1486
617.298	-129.101	1484
620.512	-129.101	1484
622.464	-128.84	1481
625.671	-128.84	1481
642.891	-131.71	1514
646.17	-131.71	1514
661.03	-134.059	1541
664.367	-134.059	1541
670.737	-134.668	1548
674.089	-134.668	1548
686.194	-136.408	1568
689.589	-136.408	1568
700.498	-137.887	1585
703.93	-137.887	1585
709.147	-138.235	1589
712.588	-138.235	1589
716.93	-138.409	1591
718.564	-138.061	1587
722.001	-138.061	1587
723.609	-137.713	1583
727.037	-137.713	1583
729.542	-137.539	1581
732.965	-137.539	1581
736.855	-137.626	1582
740.28	-137.626	1582
743.706	-137.626	1582
747.132	-137.626	1582
750.083	-137.539	1581
753.507	-137.539	1581
756.451	-137.452	1580
759.873	-137.452	1580
762.811	-137.365	1579
766.23	-137.365	1579
768.187	-137.104	1576
771.6	-137.104	1576
773.537	-136.843	1573
776.943	-136.843	1573
777.373	-136.321	1567
780.766	-136.321	1567
781.657	-135.886	1562
785.04	-135.886	1562
786.908	-135.625	1559
790.284	-135.625	1559
793.66	-135.625	1559
797.036	-135.625	1559
801.438	-135.799	1561
804.819	-135.799	1561
809.234	-135.973	1563
812.619	-135.973	1563
816.003	-135.973	1563
819.388	-135.973	1563
822.246	-135.886	1562
825.629	-135.886	1562
827.419	-135.625	1559
830.795	-135.625	1559
832.565	-135.364	1556
835.935	-135.364	1556
838.225	-135.19	1554
841.59	-135.19	1554
843.868	-135.016	1552
847.229	-135.016	1552
848.397	-134.668	1548
851.749	-134.668	1548
852.34	-134.233	1543
855.681	-134.233	1543
856.238	-133.798	1538
859.569	-133.798	1538
859.533	-133.276	1532
862.85	-133.276	1532
862.21	-132.667	1525
865.512	-132.667	1525
868.245	-132.58	1524
871.545	-132.58	1524
878.722	-131.189	1508
881.988	-131.189	1508
885.253	-131.189	1508
888.519	-131.189	1508
891.784	-131.189	1508
895.643	-131.275	1509
898.911	-131.275	1509
901.581	-131.189	1508
904.846	-131.189	1508
907.509	-131.102	1507
910.773	-131.102	1507
912.216	-130.841	1504
915.473	-130.841	1504
916.286	-130.493	1500
919.535	-130.493	1500
920.322	-130.145	1496
923.561	-130.145	1496
926.801	-130.145	1496
930.04	-130.145	1496
933.28	-130.145	1496
937.145	-130.232	1497
940.387	-130.232	1497
-818.037	-95.6863	1128
-815.595	-95.6863	1128
-813.152	-95.6863	1128
-807.835	-95.3469	1124
-805.401	-95.3469	1124
-812.254	-96.4497	1137
-809.792	-96.4497	1137
-807.33	-96.4497	1137
-838.138	-100.437	1184
-835.574	-100.437	1184
-845.675	-101.964	1202
-843.072	-101.964	1202
-844.664	-102.473	1208
-842.048	-102.473	1208
-839.433	-102.473	1208
-841.666	-103.066	1215
-839.035	-103.066	1215
-842.599	-103.83	1224
-839.949	-103.83	1224
-842.771	-104.508	1232
-840.103	-104.508	1232
-837.435	-104.508	1232
-840.188	-105.187	1240
-837.503	-105.187	1240
-839.531	-105.781	1247
-836.83	-105.781	1247
-838.812	-106.375	1254
-836.097	-106.375	1254
-833.381	-106.375	1254
-834.641	-106.884	1260
-831.912	-106.884	1260
-833.132	-107.393	1266
-830.391	-107.393	1266
-832.226	-107.986	1273
-829.469	-107.986	1273
-831.908	-108.665	1281
-829.134	-108.665	1281
-832.811	-109.513	1291
-830.015	-109.513	1291
-827.22	-109.513	1291
-829.533	-110.192	1299
-826.72	-110.192	1299
-828.981	-110.871	1307
-826.151	-110.871	1307
-828.99	-111.634	1316
-826.14	-111.634	1316
-827.67	-112.228	1323
-824.805	-112.228	1323
-828.153	-113.076	1333
-825.266	-113.076	1333
-822.38	-113.076	1333
-825.641	-113.924	1343
-822.733	-113.924	1343
-825.929	-114.773	1353
-822.999	-114.773	1353
-826.131	-115.621	1363
-823.179	-115.621	1363
-825.644	-116.384	1372
-822.673	-116.384	1372
-824.481	-117.063	1380
-821.493	-117.063	1380
-823.25	-117.742	1388
-820.244	-117.742	1388
-821.949	-118.42	1396
-818.926	-118.42	1396
-821.748	-119.269	1406
-818.703	-119.269	1406
-820.299	-119.947	1414
-817.238	-119.947	1414
-814.176	-119.947	1414
-814.555	-120.456	1420
-811.481	-120.456	1420
-812.96	-121.135	1428
-809.868	-121.135	1428
-810.73	-121.729	1435
-807.623	-121.729	1435
-807.879	-122.237	1441
-804.759	-122.237	1441
-803.864	-122.577	1445
-800.735	-122.577	1445
-799.262	-122.831	1448
-796.126	-122.831	1448
-794.634	-123.086	1451
-791.492	-123.086	1451
-791.066	-123.51	1456
-787.913	-123.51	1456
-788.533	-124.104	1463
-785.365	-124.104	1463
-786.474	-124.782	1471
-783.289	-124.782	1471
-783.816	-125.376	1478
-780.616	-125.376	1478
-780.045	-125.8	1483
-776.834	-125.8	1483
-775.187	-126.055	1486
-771.969	-126.055	1486
-768.752	-126.055	1486
-765.534	-126.055	1486
-762.316	-126.055	1486
-759.098	-126.055	1486
-746.509	-126.649	1493
-748.255	-127.497	1503
-745	-127.497	1503
-744.706	-128.006	1509
-741.439	-128.006	1509
-742.574	-128.769	1518
-739.287	-128.769	1518
-738.909	-129.278	1524
-735.608	-129.278	1524
-734.23	-129.618	1528
-730.922	-129.618	1528
-728.089	-129.702	1529
-724.778	-129.702	1529
-721.467	-129.702	1529
-718.156	-129.702	1529
-714.845	-129.702	1529
-711.534	-129.702	1529
-426.698	-81.1806	957
-432.612	-82.7075	975
-430.501	-82.7075	975
-468.373	-90.4269	1066
-466.065	-90.4269	1066
-465.496	-90.7662	1070
-463.179	-90.7662	1070
-463.447	-91.2752	1076
-461.117	-91.2752	1076
-460.066	-91.5297	1079
-457.729	-91.5297	1079
-456.237	-91.6993	1081
-453.896	-91.6993	1081
-451.555	-91.6993	1081
-449.214	-91.6993	1081
-446.46	-91.6145	1080
-444.122	-91.6145	1080
-441.374	-91.5297	1079
-438.63	-91.4448	1078
-436.296	-91.4448	1078
-433.559	-91.36	1077
-431.227	-91.36	1077
-428.098	-91.1904	1075
-425.771	-91.1904	1075
-346.601	-81.3503	959
-344.524	-81.3503	959
-342.447	-81.3503	959
-340.371	-81.3503	959
-337.941	-81.2654	958
-335.867	-81.2654	958
-333.792	-81.2654	958
-331.718	-81.2654	958
-329.643	-81.2654	958
-327.569	-81.2654	958
-325.494	-81.2654	958
-323.42	-81.2654	958
-321.345	-81.2654	958
-319.604	-81.3503	959
-317.528	-81.3503	959
-315.451	-81.3503	959
-313.374	-81.3503	959
-376.952	-115.451	1361
-374.005	-115.451	1361
-371.058	-115.451	1361
-368.111	-115.451	1361
-365.432	-115.536	1362
-362.483	-115.536	1362
-360.061	-115.706	1364
-357.108	-115.706	1364
-353.635	-115.536	1362
-350.686	-115.536	1362
-403.65	-134.113	1581
-400.226	-134.113	1581
-396.803	-134.113	1581
-393.379	-134.113	1581
-389.956	-134.113	1581
-389.466	-135.131	1593
-386.016	-135.131	1593
-385.449	-136.149	1605
-381.973	-136.149	1605
-378.498	-136.149	1605
-375.022	-136.149	1605
-372.704	-136.573	1610
-369.218	-136.573	1610
-365.731	-136.573	1610
-362.245	-136.573	1610
-358.09	-136.319	1607
-354.61	-136.319	1607
-351.131	-136.319	1607
-347.651	-136.319	1607
-342.672	-135.725	1600
-339.207	-135.725	1600
-336.792	-136.149	1605
-333.316	-136.149	1605
-291.792	-136.234	1606
-288.314	-136.234	1606
-284.836	-136.234	1606
-281.359	-136.234	1606
-277.708	-136.149	1605
-274.232	-136.149	1605
166.278	-60.8218	717
167.831	-60.8218	717
169.383	-60.8218	717
170.936	-60.8218	717
172.488	-60.8218	717
174.041	-60.8218	717
422.23	-135.471	1597
425.688	-135.471	1597
429.415	-135.556	1598
432.875	-135.556	1598
436.063	-135.471	1597
439.521	-135.471	1597
443.811	-135.725	1600
447.276	-135.725	1600
450.741	-135.725	1600
454.205	-135.725	1600
456.24	-135.301	1595
459.694	-135.301	1595
461.986	-134.962	1591
465.431	-134.962	1591
467.697	-134.622	1587
471.134	-134.622	1587
473.374	-134.283	1583
476.501	-134.198	1582
479.927	-134.198	1582
479.992	-133.265	1571
483.393	-133.265	1571
493.922	-135.216	1594
497.374	-135.216	1594
501.768	-135.471	1597
505.226	-135.471	1597
508.366	-135.386	1596
511.822	-135.386	1596
514.31	-135.131	1593
517.759	-135.131	1593
519.573	-134.707	1588
523.011	-134.707	1588
526.118	-134.622	1587
529.555	-134.622	1587
533.327	-134.707	1588
538.794	-135.216	1594
542.246	-135.216	1594
545.013	-135.047	1592
548.46	-135.047	1592
550.868	-134.792	1589
554.308	-134.792	1589
554.59	-134.029	1580
558.012	-134.029	1580
542.6	-129.533	1527
545.907	-129.533	1527
552.45	-130.296	1536
555.776	-130.296	1536
555.827	-129.533	1527
559.133	-129.533	1527
562.44	-129.533	1527
566.858	-129.787	1530
570.171	-129.787	1530
575.733	-130.296	1536
579.059	-130.296	1536
583.523	-130.551	1539
586.855	-130.551	1539
587.503	-129.957	1532
590.821	-129.957	1532
590.26	-129.109	1522
593.556	-129.109	1522
593.322	-128.345	1513
596.599	-128.345	1513
595.91	-127.497	1503
599.165	-127.497	1503
600.415	-127.073	1498
603.659	-127.073	1498
605.282	-126.733	1494
608.518	-126.733	1494
610.524	-126.479	1491
611.695	-126.055	1486
614.913	-126.055	1486
617.298	-125.885	1484
620.512	-125.885	1484
622.464	-125.631	1481
625.671	-125.631	1481
642.891	-128.43	1514
646.17	-128.43	1514
661.03	-130.72	1541
664.367	-130.72	1541
670.737	-131.314	1548
674.089	-131.314	1548
686.194	-133.011	1568
689.589	-133.011	1568
700.498	-134.453	1585
703.93	-134.453	1585
709.147	-134.792	1589
712.588	-134.792	1589
716.93	-134.962	1591
718.564	-134.622	1587
722.001	-134.622	1587
723.609	-134.283	1583
727.037	-134.283	1583
729.542	-134.113	1581
732.965	-134.113	1581
736.855	-134.198	1582
740.28	-134.198	1582
743.706	-134.198	1582
747.132	-134.198	1582
750.083	-134.113	1581
753.507	-134.113	1581
756.451	-134.029	1580
759.873	-134.029	1580
762.811	-133.944	1579
766.23	-133.944	1579
768.187	-133.689	1576
771.6	-133.689	1576
773.537	-133.435	1573
776.943	-133.435	1573
777.373	-132.926	1567
780.766	-132.926	1567
781.657	-132.502	1562
785.04	-132.502	1562
786.908	-132.247	1559
790.284	-132.247	1559
793.66	-132.247	1559
797.036	-132.247	1559
801.438	-132.417	1561
804.819	-132.417	1561
809.234	-132.587	1563
812.619	-132.587	1563
816.003	-132.587	1563
819.388	-132.587	1563
822.246	-132.502	1562
825.629	-132.502	1562
827.419	-132.247	1559
830.795	-132.247	1559
832.565	-131.993	1556
835.935	-131.993	1556
838.225	-131.823	1554
841.59	-131.823	1554
843.868	-131.653	1552
847.229	-131.653	1552
848.397	-131.314	1548
851.749	-131.314	1548
852.34	-130.89	1543
855.681	-130.89	1543
856.238	-130.466	1538
859.569	-130.466	1538
859.533	-129.957	1532
862.85	-129.957	1532
862.21	-129.363	1525
865.512	-129.363	1525
868.245	-129.278	1524
871.545	-129.278	1524
878.722	-127.921	1508
881.988	-127.921	1508
885.253	-127.921	1508
888.519	-127.921	1508
891.784	-127.921	1508
895.643	-128.006	1509
898.911	-128.006	1509
901.581	-127.921	1508
904.846	-127.921	1508
907.509	-127.836	1507
910.773	-127.836	1507
912.216	-127.582	1504
915.473	-127.582	1504
916.286	-127.242	1500
919.535	-127.242	1500
920.322	-126.903	1496
923.561	-126.903	1496
926.801	-126.903	1496
930.04	-126.903	1496
933.28	-126.903	1496
937.145	-126.988	1497
940.387	-126.988	1497
-815.595	-93.2421	1128
-813.152	-93.2421	1128
-807.835	-92.9115	1124
-805.401	-92.9115	1124
-812.254	-93.9861	1137
-809.792	-93.9861	1137
-807.33	-93.9861	1137
-838.138	-97.8712	1184
-835.574	-97.8712	1184
-845.675	-99.3591	1202
-843.072	-99.3591	1202
-844.664	-99.855	1208
-842.048	-99.855	1208
-839.433	-99.855	1208
-841.666	-100.434	1215
-839.035	-100.434	1215
-842.599	-101.178	1224
-839.949	-101.178	1224
-842.771	-101.839	1232
-840.103	-101.839	1232
-837.435	-101.839	1232
-840.188	-102.5	1240
-837.503	-102.5	1240
-839.531	-103.079	1247
-836.83	-103.079	1247
-838.812	-103.657	1254
-836.097	-103.657	1254
-833.381	-103.657	1254
-834.641	-104.153	1260
-831.912	-104.153	1260
-833.79	-104.732	1267
-831.047	-104.732	1267
-834.187	-105.476	1276
-831.424	-105.476	1276
-834.505	-106.22	1285
-831.723	-106.22	1285
-828.94	-106.22	1285
-831.944	-106.964	1294
-829.142	-106.964	1294
-831.449	-107.625	1302
-828.629	-107.625	1302
-830.884	-108.286	1310
-828.047	-108.286	1310
-829.62	-108.865	1317
-826.768	-108.865	1317
-830.172	-109.692	1327
-827.299	-109.692	1327
-829.395	-110.353	1335
-826.505	-110.353	1335
-823.614	-110.353	1335
-825.026	-110.932	1342
-822.12	-110.932	1342
-825.319	-111.758	1352
-822.391	-111.758	1352
-825.525	-112.585	1362
-822.575	-112.585	1362
-825.042	-113.329	1371
-822.073	-113.329	1371
-823.884	-113.99	1379
-820.898	-113.99	1379
-822.657	-114.651	1387
-819.653	-114.651	1387
-821.36	-115.313	1395
-818.339	-115.313	1395
-819.994	-115.974	1403
-816.956	-115.974	1403
-819.139	-116.718	1412
-816.082	-116.718	1412
-813.024	-116.718	1412
-815.129	-117.462	1421
-812.052	-117.462	1421
-814.099	-118.206	1430
-811.002	-118.206	1430
-812.99	-118.95	1439
-809.874	-118.95	1439
-810.122	-119.446	1445
-806.993	-119.446	1445
-805.533	-119.694	1448
-802.397	-119.694	1448
-799.814	-119.776	1449
-796.676	-119.776	1449
-794.086	-119.859	1450
-790.946	-119.859	1450
-789.436	-120.107	1453
-786.29	-120.107	1453
-786.377	-120.603	1459
-783.218	-120.603	1459
-783.801	-121.182	1466
-780.627	-121.182	1466
-781.695	-121.843	1474
-778.503	-121.843	1474
-777.941	-122.256	1479
-774.738	-122.256	1479
-773.622	-122.587	1483
-770.411	-122.587	1483
-768.234	-122.752	1485
-765.019	-122.752	1485
-746.509	-123.414	1493
-746.263	-123.91	1499
-743.017	-123.91	1499
-742.239	-124.323	1504
-738.982	-124.323	1504
-741.595	-125.315	1516
-738.313	-125.315	1516
-737.939	-125.811	1522
-734.643	-125.811	1522
-733.75	-126.224	1527
-730.443	-126.224	1527
-728.089	-126.389	1529
-724.778	-126.389	1529
-721.939	-126.472	1530
-718.626	-126.472	1530
-715.78	-126.555	1531
-712.465	-126.555	1531
-440.747	-80.9256	979
-438.627	-80.9256	979
-432.494	-80.1816	970
-432.612	-80.5949	975
-430.501	-80.5949	975
-468.373	-88.1171	1066
-466.065	-88.1171	1066
-466.366	-88.6131	1072
-464.045	-88.6131	1072
-462.154	-88.6957	1073
-459.831	-88.6957	1073
-460.066	-89.1917	1079
-457.729	-89.1917	1079
-456.237	-89.357	1081
-453.896	-89.357	1081
-451.555	-89.357	1081
-449.214	-89.357	1081
-446.46	-89.2744	1080
-443.71	-89.1917	1079
-441.374	-89.1917	1079
-438.224	-89.0264	1077
-435.891	-89.0264	1077
-433.157	-88.9437	1076
-430.827	-88.9437	1076
-428.497	-88.9437	1076
-426.167	-88.9437	1076
-346.601	-79.2723	959
-344.524	-79.2723	959
-342.447	-79.2723	959
-340.371	-79.2723	959
-338.294	-79.2723	959
-336.217	-79.2723	959
-333.792	-79.1897	958
-331.372	-79.107	957
-329.299	-79.107	957
-327.911	-79.2723	959
-325.834	-79.2723	959
-323.758	-79.2723	959
-321.681	-79.2723	959
-319.604	-79.2723	959
-317.528	-79.2723	959
-315.451	-79.2723	959
-313.374	-79.2723	959
-415.728	-124.075	1501
-412.477	-124.075	1501
-371.331	-112.585	1362
-368.381	-112.585	1362
-365.969	-112.75	1364
-363.015	-112.75	1364
-360.589	-112.916	1366
-357.631	-112.916	1366
-354.154	-112.75	1364
-351.2	-112.75	1364
-405.182	-131.184	1587
-401.745	-131.184	1587
-398.309	-131.184	1587
-394.872	-131.184	1587
-391.929	-131.349	1589
-389.71	-131.762	1594
-386.259	-131.762	1594
-385.929	-132.837	1607
-378.969	-132.837	1607
-375.489	-132.837	1607
-372.473	-133.002	1609
-368.988	-133.002	1609
-365.504	-133.002	1609
-362.02	-133.002	1609
-357.867	-132.754	1606
-354.39	-132.754	1606
-350.912	-132.754	1606
-347.434	-132.754	1606
-291.428	-132.589	1604
-287.955	-132.589	1604
-284.482	-132.589	1604
-281.008	-132.589	1604
-277.708	-132.672	1605
-274.232	-132.672	1605
166.046	-59.1856	716
167.597	-59.1856	716
168.438	-58.9376	713
169.982	-58.9376	713
172.007	-59.1029	715
173.556	-59.1029	715
424.081	-132.589	1604
427.554	-132.589	1604
430.759	-132.506	1603
434.23	-132.506	1603
437.701	-132.506	1603
441.172	-132.506	1603
444.643	-132.506	1603
448.114	-132.506	1603
451.304	-132.424	1602
454.773	-132.424	1602
457.098	-132.093	1598
460.558	-132.093	1598
462.567	-131.68	1593
466.016	-131.68	1593
468.287	-131.349	1589
471.728	-131.349	1589
473.374	-130.853	1583
476.501	-130.77	1582
479.927	-130.77	1582
479.992	-129.861	1571
483.393	-129.861	1571
490.204	-130.77	1582
493.63	-130.77	1582
498.94	-131.266	1588
502.379	-131.266	1588
505.818	-131.266	1588
509.257	-131.266	1588
511.727	-131.018	1585
515.159	-131.018	1585
518.591	-131.018	1585
522.023	-131.018	1585
526.118	-131.184	1587
529.555	-131.184	1587
533.327	-131.266	1588
538.794	-131.762	1594
542.246	-131.762	1594
545.355	-131.68	1593
548.805	-131.68	1593
552.254	-131.68	1593
555.704	-131.68	1593
557.047	-131.184	1587
560.484	-131.184	1587
542.6	-126.224	1527
545.907	-126.224	1527
549.573	-126.307	1528
552.882	-126.307	1528
555.099	-126.059	1525
558.401	-126.059	1525
561.703	-126.059	1525
565.005	-126.059	1525
570.544	-126.555	1531
575.358	-126.885	1535
578.682	-126.885	1535
583.523	-127.216	1539
586.855	-127.216	1539
588.27	-126.803	1534
591.592	-126.803	1534
591.811	-126.141	1526
595.116	-126.141	1526
593.714	-125.149	1514
596.993	-125.149	1514
606.219	-126.389	1529
609.53	-126.389	1529
599.213	-123.579	1495
602.45	-123.579	1495
605.282	-123.496	1494
608.518	-123.496	1494
610.934	-123.331	1492
613.753	-123.248	1491
616.982	-123.248	1491
620.626	-123.331	1492
623.857	-123.331	1492
633.392	-124.571	1507
636.656	-124.571	1507
652.233	-126.968	1536
655.559	-126.968	1536
661.459	-127.464	1542
664.798	-127.464	1542
674.203	-128.621	1556
677.573	-128.621	1556
685.756	-129.53	1567
689.149	-129.53	1567
699.172	-130.77	1582
702.598	-130.77	1582
710.04	-131.514	1591
713.485	-131.514	1591
718.733	-131.845	1595
721.281	-131.68	1593
724.73	-131.68	1593
725.894	-131.266	1588
729.333	-131.266	1588
731.849	-131.101	1586
735.283	-131.101	1586
738.718	-131.101	1586
742.152	-131.101	1586
745.116	-131.018	1585
748.549	-131.018	1585
751.506	-130.936	1584
754.936	-130.936	1584
758.366	-130.936	1584
761.796	-130.936	1584
764.743	-130.853	1583
768.171	-130.853	1583
771.112	-130.77	1582
774.537	-130.77	1582
775.996	-130.44	1578
779.413	-130.44	1578
779.854	-129.944	1572
783.258	-129.944	1572
783.659	-129.448	1566
787.05	-129.448	1566
788.927	-129.2	1563
792.312	-129.2	1563
795.187	-129.117	1562
798.569	-129.117	1562
802.465	-129.2	1563
805.85	-129.2	1563
809.234	-129.2	1563
812.619	-129.2	1563
815.481	-129.117	1562
818.864	-129.117	1562
821.193	-128.952	1560
824.571	-128.952	1560
826.888	-128.787	1558
830.262	-128.787	1558
832.565	-128.621	1556
835.935	-128.621	1556
839.304	-128.621	1556
842.674	-128.621	1556
844.956	-128.456	1554
848.321	-128.456	1554
848.945	-128.043	1549
852.3	-128.043	1549
851.787	-127.464	1542
855.126	-127.464	1542
854.568	-126.885	1535
857.892	-126.885	1535
857.289	-126.307	1528
860.598	-126.307	1528
859.949	-125.728	1521
863.242	-125.728	1521
865.966	-125.645	1520
869.258	-125.645	1520
879.888	-124.819	1510
883.158	-124.819	1510
885.84	-124.736	1509
889.108	-124.736	1509
892.376	-124.736	1509
895.643	-124.736	1509
898.911	-124.736	1509
903.374	-124.901	1511
906.646	-124.901	1511
909.918	-124.901	1511
913.19	-124.901	1511
915.855	-124.819	1510
919.125	-124.819	1510
920.563	-124.571	1507
923.826	-124.571	1507
925.244	-124.323	1504
928.5	-124.323	1504
931.757	-124.323	1504
933.771	-124.157	1502
937.023	-124.157	1502
940.276	-124.157	1502
943.528	-124.157	1502
-832.945	-91.3614	1135
-830.487	-91.3614	1135
-824.382	-90.959	1130
-821.935	-90.959	1130
-819.488	-90.959	1130
-815.595	-90.798	1128
-813.152	-90.798	1128
-808.553	-90.5565	1125
-806.117	-90.5565	1125
-827.97	-93.2933	1159
-825.461	-93.2933	1159
-822.951	-93.2933	1159
-825.396	-93.8568	1166
-822.871	-93.8568	1166
-839.343	-96.0301	1193
-836.759	-96.0301	1193
-844.664	-97.2375	1208
-842.048	-97.2375	1208
-839.433	-97.2375	1208
-843.744	-98.0425	1218
-841.107	-98.0425	1218
-844.665	-98.7669	1227
-842.008	-98.7669	1227
-844.823	-99.4109	1235
-842.149	-99.4109	1235
-839.475	-99.4109	1235
-840.866	-99.8939	1241
-838.178	-99.8939	1241
-839.531	-100.377	1247
-836.83	-100.377	1247
-838.812	-100.94	1254
-836.097	-100.94	1254
-833.381	-100.94	1254
-834.641	-101.423	1260
-831.912	-101.423	1260
-833.79	-101.987	1267
-831.047	-101.987	1267
-834.187	-102.711	1276
-831.424	-102.711	1276
-834.505	-103.436	1285
-831.723	-103.436	1285
-828.94	-103.436	1285
-831.944	-104.16	1294
-829.142	-104.16	1294
-831.449	-104.804	1302
-828.629	-104.804	1302
-830.884	-105.448	1310
-828.047	-105.448	1310
-829.62	-106.011	1317
-826.768	-106.011	1317
-830.172	-106.816	1327
-827.299	-106.816	1327
-829.395	-107.46	1335
-826.505	-107.46	1335
-823.614	-107.46	1335
-825.026	-108.024	1342
-822.12	-108.024	1342
-825.319	-108.829	1352
-822.391	-108.829	1352
-825.525	-109.634	1362
-822.575	-109.634	1362
-825.042	-110.358	1371
-822.073	-110.358	1371
-823.884	-111.002	1379
-820.898	-111.002	1379
-822.657	-111.646	1387
-819.653	-111.646	1387
-821.36	-112.29	1395
-818.339	-112.29	1395
-819.994	-112.934	1403
-816.956	-112.934	1403
-819.139	-113.658	1412
-816.082	-113.658	1412
-813.024	-113.658	1412
-815.129	-114.383	1421
-812.052	-114.383	1421
-814.099	-115.107	1430
-811.002	-115.107	1430
-812.99	-115.832	1439
-809.874	-115.832	1439
-810.122	-116.315	1445
-806.993	-116.315	1445
-805.533	-116.556	1448
-802.397	-116.556	1448
-799.814	-116.637	1449
-796.676	-116.637	1449
-794.086	-116.717	1450
-790.946	-116.717	1450
-789.436	-116.959	1453
-786.29	-116.959	1453
-786.377	-117.442	1459
-783.218	-117.442	1459
-783.801	-118.005	1466
-780.627	-118.005	1466
-781.695	-118.649	1474
-778.503	-118.649	1474
-777.941	-119.052	1479
-774.738	-119.052	1479
-773.622	-119.374	1483
-770.411	-119.374	1483
-768.234	-119.535	1485
-765.019	-119.535	1485
-746.509	-120.179	1493
-746.263	-120.661	1499
-743.017	-120.661	1499
-742.239	-121.064	1504
-738.982	-121.064	1504
-741.595	-122.03	1516
-738.313	-122.03	1516
-737.939	-122.513	1522
-734.643	-122.513	1522
-733.75	-122.915	1527
-730.443	-122.915	1527
-728.089	-123.076	1529
-724.778	-123.076	1529
-721.939	-123.157	1530
-718.626	-123.157	1530
-715.78	-123.237	1531
-712.465	-123.237	1531
-440.747	-78.8043	979
-438.627	-78.8043	979
-432.494	-78.0798	970
-432.612	-78.4823	975
-430.501	-78.4823	975
-468.373	-85.8073	1066
-466.065	-85.8073	1066
-466.366	-86.2903	1072
-464.045	-86.2903	1072
-462.154	-86.3708	1073
-459.831	-86.3708	1073
-460.066	-86.8537	1079
-457.729	-86.8537	1079
-456.237	-87.0147	1081
-453.896	-87.0147	1081
-451.555	-87.0147	1081
-449.214	-87.0147	1081
-446.46	-86.9342	1080
-443.71	-86.8537	1079
-441.374	-86.8537	1079
-438.224	-86.6927	1077
-435.891	-86.6927	1077
-433.157	-86.6123	1076
-430.827	-86.6123	1076
-428.497	-86.6123	1076
-426.167	-86.6123	1076
-346.601	-77.1944	959
-344.524	-77.1944	959
-342.447	-77.1944	959
-340.371	-77.1944	959
-338.294	-77.1944	959
-336.217	-77.1944	959
-333.792	-77.1139	958
-331.372	-77.0334	957
-329.299	-77.0334	957
-327.911	-77.1944	959
-325.834	-77.1944	959
-323.758	-77.1944	959
-321.681	-77.1944	959
-319.604	-77.1944	959
-317.528	-77.1944	959
-315.451	-77.1944	959
-313.374	-77.1944	959
-415.728	-120.822	1501
-412.477	-120.822	1501
-371.331	-109.634	1362
-368.381	-109.634	1362
-365.969	-109.795	1364
-363.015	-109.795	1364
-360.589	-109.956	1366
-357.631	-109.956	1366
-354.154	-109.795	1364
-351.2	-109.795	1364
-405.182	-127.745	1587
-401.745	-127.745	1587
-398.309	-127.745	1587
-394.872	-127.745	1587
-391.929	-127.906	1589
-389.71	-128.308	1594
-386.259	-128.308	1594
-385.929	-129.355	1607
-382.449	-129.355	1607
-378.969	-129.355	1607
-375.489	-129.355	1607
-372.473	-129.516	1609
-368.988	-129.516	1609
-365.504	-129.516	1609
-362.02	-129.516	1609
-357.867	-129.274	1606
-354.39	-129.274	1606
-350.912	-129.274	1606
-347.434	-129.274	1606
-291.247	-129.033	1603
-287.775	-129.033	1603
-284.482	-129.113	1604
-281.008	-129.113	1604
-277.708	-129.194	1605
-274.232	-129.194	1605
166.046	-57.6342	716
167.597	-57.6342	716
168.438	-57.3927	713
169.982	-57.3927	713
172.007	-57.5537	715
173.556	-57.5537	715
424.081	-129.113	1604
427.554	-129.113	1604
430.759	-129.033	1603
434.23	-129.033	1603
437.701	-129.033	1603
441.172	-129.033	1603
444.643	-129.033	1603
448.114	-129.033	1603
451.304	-128.952	1602
454.773	-128.952	1602
457.098	-128.63	1598
460.558	-128.63	1598
462.567	-128.228	1593
466.016	-128.228	1593
468.287	-127.906	1589
471.728	-127.906	1589
473.374	-127.423	1583
476.501	-127.343	1582
479.927	-127.343	1582
479.992	-126.457	1571
483.393	-126.457	1571
490.204	-127.343	1582
493.63	-127.343	1582
498.94	-127.826	1588
502.379	-127.826	1588
505.818	-127.826	1588
515.159	-127.584	1585
518.591	-127.584	1585
522.023	-127.584	1585
526.118	-127.745	1587
529.555	-127.745	1587
533.327	-127.826	1588
538.794	-128.308	1594
542.246	-128.308	1594
545.355	-128.228	1593
548.805	-128.228	1593
552.254	-128.228	1593
555.704	-128.228	1593
557.047	-127.745	1587
560.484	-127.745	1587
542.6	-122.915	1527
545.907	-122.915	1527
549.573	-122.996	1528
552.882	-122.996	1528
555.099	-122.754	1525
558.401	-122.754	1525
561.703	-122.754	1525
565.005	-122.754	1525
570.544	-123.237	1531
575.358	-123.559	1535
578.682	-123.559	1535
583.523	-123.881	1539
586.855	-123.881	1539
588.27	-123.479	1534
591.592	-123.479	1534
591.811	-122.835	1526
595.116	-122.835	1526
593.714	-121.869	1514
596.993	-121.869	1514
606.219	-123.076	1529
609.53	-123.076	1529
599.213	-120.34	1495
602.45	-120.34	1495
605.282	-120.259	1494
608.518	-120.259	1494
610.934	-120.098	1492
613.753	-120.018	1491
616.982	-120.018	1491
620.626	-120.098	1492
623.857	-120.098	1492
633.392	-121.305	1507
636.656	-121.305	1507
652.233	-123.64	1536
655.559	-123.64	1536
661.459	-124.123	1542
664.798	-124.123	1542
674.203	-125.25	1556
677.573	-125.25	1556
685.756	-126.135	1567
689.149	-126.135	1567
699.172	-127.343	1582
702.598	-127.343	1582
710.04	-128.067	1591
713.485	-128.067	1591
718.733	-128.389	1595
721.281	-128.228	1593
724.73	-128.228	1593
725.894	-127.826	1588
729.333	-127.826	1588
731.849	-127.665	1586
735.283	-127.665	1586
738.718	-127.665	1586
742.152	-127.665	1586
745.116	-127.584	1585
748.549	-127.584	1585
751.506	-127.504	1584
754.936	-127.504	1584
758.366	-127.504	1584
761.796	-127.504	1584
764.743	-127.423	1583
768.171	-127.423	1583
771.112	-127.343	1582
774.537	-127.343	1582
775.996	-127.021	1578
779.413	-127.021	1578
779.854	-126.538	1572
783.258	-126.538	1572
783.659	-126.055	1566
787.05	-126.055	1566
788.927	-125.813	1563
792.312	-125.813	1563
795.187	-125.733	1562
798.569	-125.733	1562
802.465	-125.813	1563
805.85	-125.813	1563
809.234	-125.813	1563
812.619	-125.813	1563
815.481	-125.733	1562
818.864	-125.733	1562
821.193	-125.572	1560
824.571	-125.572	1560
826.888	-125.411	1558
830.262	-125.411	1558
832.565	-125.25	1556
835.935	-125.25	1556
839.304	-125.25	1556
842.674	-125.25	1556
844.956	-125.089	1554
848.321	-125.089	1554
848.945	-124.686	1549
852.3	-124.686	1549
851.787	-124.123	1542
855.126	-124.123	1542
854.568	-123.559	1535
857.892	-123.559	1535
857.289	-122.996	1528
860.598	-122.996	1528
859.949	-122.432	1521
863.242	-122.432	1521
865.966	-122.352	1520
869.258	-122.352	1520
879.888	-121.547	1510
883.158	-121.547	1510
885.84	-121.466	1509
889.108	-121.466	1509
892.376	-121.466	1509
895.643	-121.466	1509
898.911	-121.466	1509
903.374	-121.627	1511
906.646	-121.627	1511
909.918	-121.627	1511
913.19	-121.627	1511
915.855	-121.547	1510
919.125	-121.547	1510
920.563	-121.305	1507
923.826	-121.305	1507
925.244	-121.064	1504
928.5	-121.064	1504
931.757	-121.064	1504
933.771	-120.903	1502
937.023	-120.903	1502
940.276	-120.903	1502
943.528	-120.903	1502
-832.945	-88.9021	1135
-830.487	-88.9021	1135
-824.382	-88.5105	1130
-821.935	-88.5105	1130
-819.488	-88.5105	1130
-815.595	-88.3538	1128
-813.152	-88.3538	1128
-808.553	-88.1189	1125
-806.117	-88.1189	1125
-827.97	-90.782	1159
-825.461	-90.782	1159
-822.951	-90.782	1159
-825.396	-91.3303	1166
-822.871	-91.3303	1166
-839.343	-93.4451	1193
-836.759	-93.4451	1193
-844.664	-94.6201	1208
-842.048	-94.6201	1208
-839.433	-94.6201	1208
-843.744	-95.4033	1218
-841.107	-95.4033	1218
-844.665	-96.1083	1227
-842.008	-96.1083	1227
-844.823	-96.7349	1235
-842.149	-96.7349	1235
-839.475	-96.7349	1235
-840.866	-97.2049	1241
-838.178	-97.2049	1241
-840.204	-97.7532	1248
-837.501	-97.7532	1248
-839.481	-98.3015	1255
-836.764	-98.3015	1255
-834.046	-98.3015	1255
-835.303	-98.7714	1261
-832.572	-98.7714	1261
-833.79	-99.2414	1267
-831.047	-99.2414	1267
-833.533	-99.868	1275
-830.772	-99.868	1275
-833.856	-100.573	1284
-831.076	-100.573	1284
-828.295	-100.573	1284
-831.944	-101.356	1294
-829.142	-101.356	1294
-831.449	-101.983	1302
-828.629	-101.983	1302
-830.884	-102.61	1310
-828.047	-102.61	1310
-830.25	-103.236	1318
-827.396	-103.236	1318
-829.547	-103.863	1326
-826.675	-103.863	1326
-828.774	-104.489	1334
-825.885	-104.489	1334
-822.997	-104.489	1334
-825.641	-105.194	1343
-822.733	-105.194	1343
-825.929	-105.978	1353
-822.999	-105.978	1353
-826.131	-106.761	1363
-823.179	-106.761	1363
-825.042	-107.388	1371
-822.073	-107.388	1371
-823.884	-108.014	1379
-820.898	-108.014	1379
-822.064	-108.562	1386
-819.062	-108.562	1386
-820.771	-109.189	1394
-817.753	-109.189	1394
-819.41	-109.816	1402
-816.374	-109.816	1402
-818.559	-110.521	1411
-815.504	-110.521	1411
-812.448	-110.521	1411
-815.129	-111.304	1421
-812.052	-111.304	1421
-815.237	-112.166	1432
-812.136	-112.166	1432
-814.685	-112.949	1442
-811.563	-112.949	1442
-812.365	-113.497	1449
-809.227	-113.497	1449
-807.202	-113.654	1451
-804.06	-113.654	1451
-800.918	-113.654	1451
-797.776	-113.654	1451
-794.086	-113.575	1450
-790.946	-113.575	1450
-788.35	-113.654	1451
-785.208	-113.654	1451
-784.221	-113.967	1455
-781.071	-113.967	1455
-781.128	-114.437	1461
-777.964	-114.437	1461
-777.982	-114.907	1467
-774.806	-114.907	1467
-775.311	-115.455	1474
-772.119	-115.455	1474
-772.057	-115.925	1480
-768.853	-115.925	1480
-751.966	-116.787	1491
-748.738	-116.787	1491
-747.509	-117.1	1495
-746.263	-117.413	1499
-743.017	-117.413	1499
-742.732	-117.883	1505
-739.473	-117.883	1505
-740.617	-118.588	1514
-737.339	-118.588	1514
-737.454	-119.137	1521
-734.16	-119.137	1521
-732.789	-119.45	1525
-729.487	-119.45	1525
-727.613	-119.685	1528
-724.304	-119.685	1528
-721.939	-119.842	1530
-718.626	-119.842	1530
-715.313	-119.842	1530
-712	-119.842	1530
-440.747	-76.683	979
-438.627	-76.683	979
-436.953	-76.7613	980
-434.831	-76.7613	980
-432.709	-76.7613	980
-431.465	-76.918	982
-429.339	-76.918	982
-465.931	-83.8891	1071
-463.612	-83.8891	1071
-463.447	-84.2808	1076
-461.117	-84.2808	1076
-460.066	-84.5158	1079
-457.729	-84.5158	1079
-456.237	-84.6724	1081
-453.896	-84.6724	1081
-451.555	-84.6724	1081
-449.214	-84.6724	1081
-446.047	-84.5158	1079
-443.299	-84.4374	1078
-440.965	-84.4374	1078
-438.224	-84.3591	1077
-435.891	-84.3591	1077
-433.157	-84.2808	1076
-430.827	-84.2808	1076
-428.497	-84.2808	1076
-426.167	-84.2808	1076
-422.655	-84.0458	1073
-420.331	-84.0458	1073
-341.376	-74.8814	956
-339.306	-74.8814	956
-337.236	-74.8814	956
-335.166	-74.8814	956
-333.444	-74.9598	957
-331.372	-74.9598	957
-329.299	-74.9598	957
-327.227	-74.9598	957
-325.155	-74.9598	957
-323.082	-74.9598	957
-321.01	-74.9598	957
-319.604	-75.1164	959
-317.528	-75.1164	959
-422.228	-117.57	1501
-418.978	-117.57	1501
-415.728	-117.57	1501
-412.477	-117.57	1501
-373.784	-107.388	1371
-370.816	-107.388	1371
-367.579	-107.309	1370
-364.612	-107.309	1370
-362.173	-107.466	1372
-359.202	-107.466	1372
-355.972	-107.388	1371
-353.003	-107.388	1371
-350.034	-107.388	1371
-347.065	-107.388	1371
-394.149	-125.168	1598
-391.177	-125.325	1600
-387.713	-125.325	1600
-385.929	-125.873	1607
-382.449	-125.873	1607
-291.247	-125.56	1603
-287.775	-125.56	1603
-284.482	-125.638	1604
-281.008	-125.638	1604
-277.708	-125.716	1605
-274.232	-125.716	1605
425.138	-125.951	1608
428.62	-125.951	1608
432.102	-125.951	1608
435.584	-125.951	1608
439.066	-125.951	1608
442.548	-125.951	1608
445.753	-125.873	1607
449.233	-125.873	1607
451.867	-125.638	1604
455.341	-125.638	1604
457.67	-125.325	1600
461.135	-125.325	1600
463.728	-125.09	1597
467.186	-125.09	1597
469.171	-124.698	1592
472.618	-124.698	1592
475.169	-124.463	1589
475.597	-123.68	1579
479.017	-123.68	1579
477.547	-122.426	1563
480.932	-122.426	1563
487.415	-123.21	1573
490.821	-123.21	1573
495.798	-123.601	1578
499.216	-123.601	1578
502.314	-123.523	1577
513.534	-123.758	1580
518.264	-124.071	1584
521.694	-124.071	1584
526.118	-124.306	1587
529.555	-124.306	1587
533.999	-124.541	1590
539.47	-125.011	1596
542.926	-125.011	1596
546.725	-125.09	1597
550.183	-125.09	1597
552.948	-124.933	1595
556.401	-124.933	1595
557.047	-124.306	1587
560.484	-124.306	1587
552.55	-121.8	1555
555.917	-121.8	1555
554.968	-120.86	1543
558.309	-120.86	1543
558.739	-120.233	1535
562.062	-120.233	1535
564.281	-119.998	1532
567.599	-119.998	1532
572.78	-120.39	1537
577.982	-120.782	1542
581.321	-120.782	1542
584.281	-120.703	1541
587.618	-120.703	1541
589.037	-120.312	1536
592.363	-120.312	1536
592.587	-119.685	1528
595.896	-119.685	1528
594.499	-118.745	1516
597.782	-118.745	1516
606.219	-119.763	1529
609.53	-119.763	1529
600.415	-117.335	1498
603.659	-117.335	1498
606.498	-117.257	1497
609.739	-117.257	1497
612.981	-117.257	1497
615.811	-117.178	1496
619.051	-117.178	1496
628.114	-118.275	1510
631.383	-118.275	1510
641.378	-119.528	1526
644.682	-119.528	1526
654.356	-120.703	1541
657.693	-120.703	1541
651.593	-118.98	1519
654.882	-118.98	1519
674.637	-121.956	1557
678.008	-121.956	1557
687.944	-123.131	1572
691.348	-123.131	1572
699.172	-123.915	1582
702.598	-123.915	1582
710.486	-124.698	1592
713.933	-124.698	1592
719.634	-125.09	1597
722.639	-125.011	1596
726.095	-125.011	1596
728.18	-124.776	1593
731.63	-124.776	1593
734.156	-124.62	1591
737.601	-124.62	1591
740.581	-124.541	1590
744.024	-124.541	1590
746.997	-124.463	1589
750.438	-124.463	1589
753.404	-124.385	1588
756.843	-124.385	1588
760.281	-124.385	1588
763.72	-124.385	1588
767.159	-124.385	1588
770.598	-124.385	1588
773.549	-124.306	1587
776.985	-124.306	1587
778.455	-123.993	1583
781.883	-123.993	1583
782.334	-123.523	1577
785.749	-123.523	1577
786.161	-123.053	1571
789.563	-123.053	1571
790.946	-122.74	1567
794.339	-122.74	1567
797.732	-122.74	1567
801.126	-122.74	1567
803.492	-122.583	1565
806.881	-122.583	1565
809.752	-122.505	1564
813.139	-122.505	1564
815.481	-122.348	1562
818.864	-122.348	1562
820.667	-122.113	1559
824.043	-122.113	1559
826.357	-121.956	1557
829.729	-121.956	1557
833.635	-122.035	1558
837.009	-122.035	1558
840.383	-122.035	1558
843.757	-122.035	1558
846.043	-121.878	1556
849.412	-121.878	1556
849.493	-121.408	1550
852.85	-121.408	1550
851.235	-120.703	1541
854.572	-120.703	1541
852.341	-119.92	1531
855.657	-119.92	1531
853.922	-119.215	1522
857.218	-119.215	1522
856.556	-118.667	1515
859.837	-118.667	1515
862.548	-118.588	1514
865.826	-118.588	1514
881.053	-118.432	1512
884.327	-118.432	1512
887.601	-118.432	1512
890.876	-118.432	1512
894.15	-118.432	1512
898.017	-118.51	1513
901.294	-118.51	1513
906.363	-118.745	1516
909.646	-118.745	1516
914.133	-118.902	1518
917.421	-118.902	1518
920.101	-118.823	1517
923.386	-118.823	1517
925.449	-118.667	1515
928.73	-118.667	1515
929.55	-118.353	1511
932.822	-118.353	1511
936.094	-118.353	1511
937.501	-118.118	1508
940.766	-118.118	1508
942.78	-117.962	1506
946.041	-117.962	1506
-844.02	-86.8236	1140
-841.551	-86.8236	1140
-839.083	-86.8236	1140
-832.945	-86.4428	1135
-830.487	-86.4428	1135
-825.841	-86.2143	1132
-823.39	-86.2143	1132
-820.938	-86.2143	1132
-816.318	-85.9859	1129
-813.873	-85.9859	1129
-810.71	-85.9097	1128
-808.267	-85.9097	1128
-834.4	-88.9561	1168
-831.871	-88.9561	1168
-829.341	-88.9561	1168
-826.812	-88.9561	1168
-824.283	-88.9561	1168
-839.343	-90.8602	1193
-836.759	-90.8602	1193
-834.176	-90.8602	1193
-843.443	-92.1549	1210
-840.822	-92.1549	1210
-843.051	-92.688	1217
-840.416	-92.688	1217
-843.976	-93.3735	1226
-841.321	-93.3735	1226
-844.139	-93.9828	1234
-841.467	-93.9828	1234
-838.795	-93.9828	1234
-840.866	-94.5159	1241
-838.178	-94.5159	1241
-839.531	-94.9729	1247
-836.83	-94.9729	1247
-839.481	-95.5822	1255
-836.764	-95.5822	1255
-834.046	-95.5822	1255
-835.303	-96.0391	1261
-832.572	-96.0391	1261
-833.79	-96.4961	1267
-831.047	-96.4961	1267
-833.533	-97.1054	1275
-830.772	-97.1054	1275
-833.856	-97.7908	1284
-831.076	-97.7908	1284
-828.295	-97.7908	1284
-831.944	-98.5524	1294
-829.142	-98.5524	1294
-831.449	-99.1617	1302
-828.629	-99.1617	1302
-830.884	-99.771	1310
-828.047	-99.771	1310
-830.25	-100.38	1318
-827.396	-100.38	1318
-829.547	-100.99	1326
-826.675	-100.99	1326
-828.774	-101.599	1334
-825.885	-101.599	1334
-822.997	-101.599	1334
-825.641	-102.284	1343
-822.733	-102.284	1343
-825.929	-103.046	1353
-822.999	-103.046	1353
-826.131	-103.808	1363
-823.179	-103.808	1363
-825.042	-104.417	1371
-822.073	-104.417	1371
-823.884	-105.026	1379
-820.898	-105.026	1379
-822.064	-105.559	1386
-819.062	-105.559	1386
-820.771	-106.169	1394
-817.753	-106.169	1394
-819.41	-106.778	1402
-816.374	-106.778	1402
-818.559	-107.463	1411
-815.504	-107.463	1411
-812.448	-107.463	1411
-815.129	-108.225	1421
-812.052	-108.225	1421
-815.237	-109.063	1432
-812.136	-109.063	1432
-814.685	-109.824	1442
-811.563	-109.824	1442
-812.365	-110.357	1449
-809.227	-110.357	1449
-807.202	-110.51	1451
-804.06	-110.51	1451
-800.918	-110.51	1451
-797.776	-110.51	1451
-794.086	-110.434	1450
-790.946	-110.434	1450
-788.35	-110.51	1451
-785.208	-110.51	1451
-784.221	-110.814	1455
-781.071	-110.814	1455
-781.128	-111.271	1461
-777.964	-111.271	1461
-777.982	-111.728	1467
-774.806	-111.728	1467
-775.311	-112.261	1474
-772.119	-112.261	1474
-772.057	-112.718	1480
-768.853	-112.718	1480
-751.966	-113.556	1491
-748.738	-113.556	1491
-747.509	-113.861	1495
-746.263	-114.165	1499
-743.017	-114.165	1499
-742.732	-114.622	1505
-739.473	-114.622	1505
-740.617	-115.308	1514
-737.339	-115.308	1514
-737.454	-115.841	1521
-734.16	-115.841	1521
-732.789	-116.146	1525
-729.487	-116.146	1525
-727.613	-116.374	1528
-724.304	-116.374	1528
-721.939	-116.526	1530
-718.626	-116.526	1530
-715.313	-116.526	1530
-712	-116.526	1530
-440.747	-74.5617	979
-438.627	-74.5617	979
-436.953	-74.6379	980
-434.831	-74.6379	980
-432.709	-74.6379	980
-431.465	-74.7902	982
-429.339	-74.7902	982
-465.931	-81.5685	1071
-463.612	-81.5685	1071
-463.447	-81.9493	1076
-461.117	-81.9493	1076
-460.066	-82.1778	1079
-457.729	-82.1778	1079
-456.237	-82.3301	1081
-453.896	-82.3301	1081
-451.555	-82.3301	1081
-449.214	-82.3301	1081
-446.047	-82.1778	1079
-443.299	-82.1016	1078
-440.965	-82.1016	1078
-438.224	-82.0255	1077
-435.891	-82.0255	1077
-433.157	-81.9493	1076
-430.827	-81.9493	1076
-428.497	-81.9493	1076
-426.167	-81.9493	1076
-422.655	-81.7208	1073
-420.331	-81.7208	1073
-341.376	-72.81	956
-339.306	-72.81	956
-337.236	-72.81	956
-335.166	-72.81	956
-333.444	-72.8862	957
-331.372	-72.8862	957
-329.299	-72.8862	957
-327.227	-72.8862	957
-325.155	-72.8862	957
-323.082	-72.8862	957
-321.01	-72.8862	957
-319.604	-73.0385	959
-317.528	-73.0385	959
-422.228	-114.318	1501
-418.978	-114.318	1501
-415.728	-114.318	1501
-412.477	-114.318	1501
-373.784	-104.417	1371
-370.816	-104.417	1371
-367.579	-104.341	1370
-364.612	-104.341	1370
-362.173	-104.493	1372
-359.202	-104.493	1372
-355.972	-104.417	1371
-353.003	-104.417	1371
-350.034	-104.417	1371
-347.065	-104.417	1371
-394.149	-121.705	1598
-391.177	-121.858	1600
-387.713	-121.858	1600
-385.929	-122.391	1607
-382.449	-122.391	1607
-150.973	-120.944	1588
-147.72	-121.096	1590
-144.277	-121.096	1590
425.138	-122.467	1608
428.62	-122.467	1608
432.102	-122.467	1608
435.584	-122.467	1608
439.066	-122.467	1608
442.548	-122.467	1608
445.753	-122.391	1607
449.233	-122.391	1607
451.867	-122.162	1604
455.341	-122.162	1604
457.67	-121.858	1600
461.135	-121.858	1600
463.728	-121.629	1597
467.186	-121.629	1597
469.171	-121.248	1592
472.618	-121.248	1592
475.169	-121.02	1589
475.597	-120.258	1579
479.017	-120.258	1579
477.547	-119.04	1563
480.932	-119.04	1563
487.415	-119.801	1573
490.821	-119.801	1573
495.798	-120.182	1578
499.216	-120.182	1578
502.314	-120.106	1577
513.534	-120.335	1580
518.264	-120.639	1584
521.694	-120.639	1584
526.118	-120.868	1587
529.555	-120.868	1587
533.999	-121.096	1590
539.47	-121.553	1596
542.926	-121.553	1596
546.725	-121.629	1597
550.183	-121.629	1597
552.948	-121.477	1595
556.401	-121.477	1595
557.047	-120.868	1587
560.484	-120.868	1587
552.55	-118.43	1555
555.917	-118.43	1555
554.968	-117.517	1543
558.309	-117.517	1543
558.739	-116.907	1535
562.062	-116.907	1535
564.281	-116.679	1532
567.599	-116.679	1532
572.78	-117.06	1537
577.982	-117.44	1542
581.321	-117.44	1542
584.281	-117.364	1541
587.618	-117.364	1541
589.037	-116.983	1536
592.363	-116.983	1536
592.587	-116.374	1528
595.896	-116.374	1528
594.499	-115.46	1516
597.782	-115.46	1516
606.219	-116.45	1529
609.53	-116.45	1529
600.415	-114.089	1498
603.659	-114.089	1498
606.498	-114.013	1497
609.739	-114.013	1497
612.981	-114.013	1497
615.811	-113.937	1496
619.051	-113.937	1496
628.114	-115.003	1510
631.383	-115.003	1510
641.378	-116.222	1526
644.682	-116.222	1526
654.356	-117.364	1541
657.693	-117.364	1541
651.593	-115.689	1519
654.882	-115.689	1519
674.637	-118.583	1557
678.008	-118.583	1557
687.944	-119.725	1572
691.348	-119.725	1572
699.172	-120.487	1582
702.598	-120.487	1582
710.486	-121.248	1592
713.933	-121.248	1592
719.634	-121.629	1597
722.639	-121.553	1596
726.095	-121.553	1596
728.18	-121.325	1593
731.63	-121.325	1593
734.156	-121.172	1591
737.601	-121.172	1591
740.581	-121.096	1590
744.024	-121.096	1590
746.997	-121.02	1589
750.438	-121.02	1589
753.404	-120.944	1588
756.843	-120.944	1588
760.281	-120.944	1588
763.72	-120.944	1588
767.159	-120.944	1588
770.598	-120.944	1588
773.549	-120.868	1587
776.985	-120.868	1587
778.455	-120.563	1583
781.883	-120.563	1583
782.334	-120.106	1577
785.749	-120.106	1577
786.161	-119.649	1571
789.563	-119.649	1571
790.946	-119.344	1567
794.339	-119.344	1567
797.732	-119.344	1567
801.126	-119.344	1567
803.492	-119.192	1565
806.881	-119.192	1565
809.752	-119.116	1564
813.139	-119.116	1564
815.481	-118.964	1562
818.864	-118.964	1562
820.667	-118.735	1559
824.043	-118.735	1559
826.357	-118.583	1557
829.729	-118.583	1557
833.635	-118.659	1558
837.009	-118.659	1558
840.383	-118.659	1558
843.757	-118.659	1558
846.043	-118.507	1556
849.412	-118.507	1556
849.493	-118.05	1550
852.85	-118.05	1550
851.235	-117.364	1541
854.572	-117.364	1541
852.341	-116.603	1531
855.657	-116.603	1531
853.922	-115.917	1522
857.218	-115.917	1522
856.556	-115.384	1515
859.837	-115.384	1515
862.548	-115.308	1514
865.826	-115.308	1514
881.053	-115.156	1512
884.327	-115.156	1512
887.601	-115.156	1512
890.876	-115.156	1512
894.15	-115.156	1512
898.017	-115.232	1513
901.294	-115.232	1513
906.363	-115.46	1516
909.646	-115.46	1516
914.133	-115.613	1518
917.421	-115.613	1518
920.101	-115.536	1517
923.386	-115.536	1517
925.449	-115.384	1515
928.73	-115.384	1515
929.55	-115.079	1511
932.822	-115.079	1511
934.235	-114.851	1508
937.501	-114.851	1508
940.766	-114.851	1508
942.78	-114.699	1506
946.041	-114.699	1506
-844.02	-84.3535	1140
-841.551	-84.3535	1140
-839.083	-84.3535	1140
-832.945	-83.9835	1135
-830.487	-83.9835	1135
-825.841	-83.7615	1132
-823.39	-83.7615	1132
-820.938	-83.7615	1132
-816.318	-83.5396	1129
-813.873	-83.5396	1129
-810.71	-83.4656	1128
-808.267	-83.4656	1128
-834.4	-86.4253	1168
-831.871	-86.4253	1168
-829.341	-86.4253	1168
-826.812	-86.4253	1168
-824.283	-86.4253	1168
-839.343	-88.2752	1193
-836.759	-88.2752	1193
-834.176	-88.2752	1193
-843.443	-89.5331	1210
-840.822	-89.5331	1210
-843.051	-90.051	1217
-840.416	-90.051	1217
-843.976	-90.717	1226
-841.321	-90.717	1226
-838.667	-90.717	1226
-841.467	-91.309	1234
-838.795	-91.309	1234
-840.866	-91.8269	1241
-838.178	-91.8269	1241
-839.531	-92.2709	1247
-836.83	-92.2709	1247
-838.143	-92.7148	1253
-835.43	-92.7148	1253
-832.717	-92.7148	1253
-835.303	-93.3068	1261
-832.572	-93.3068	1261
-835.106	-93.8988	1269
-832.358	-93.8988	1269
-835.494	-94.5647	1278
-832.727	-94.5647	1278
-835.804	-95.2306	1287
-833.017	-95.2306	1287
-830.23	-95.2306	1287
-833.23	-95.8966	1296
-830.423	-95.8966	1296
-833.364	-96.5625	1305
-830.539	-96.5625	1305
-832.152	-97.0805	1312
-829.311	-97.0805	1312
-831.51	-97.6725	1320
-828.651	-97.6725	1320
-830.172	-98.1904	1327
-827.299	-98.1904	1327
-830.017	-98.8564	1336
-827.124	-98.8564	1336
-824.231	-98.8564	1336
-826.871	-99.5223	1345
-823.958	-99.5223	1345
-827.15	-100.262	1355
-824.216	-100.262	1355
-826.737	-100.928	1364
-823.783	-100.928	1364
-825.644	-101.52	1372
-822.673	-101.52	1372
-823.884	-102.038	1379
-820.898	-102.038	1379
-822.064	-102.556	1386
-819.062	-102.556	1386
-820.183	-103.074	1393
-817.166	-103.074	1393
-819.41	-103.74	1402
-816.374	-103.74	1402
-818.559	-104.406	1411
-815.504	-104.406	1411
-812.448	-104.406	1411
-815.129	-105.146	1421
-812.052	-105.146	1421
-815.237	-105.96	1432
-812.136	-105.96	1432
-815.25	-106.774	1443
-812.125	-106.774	1443
-813.486	-107.366	1451
-810.344	-107.366	1451
-808.314	-107.514	1453
-805.168	-107.514	1453
-800.918	-107.366	1451
-797.776	-107.366	1451
-794.086	-107.292	1450
-790.946	-107.292	1450
-787.806	-107.292	1450
-784.666	-107.292	1450
-782.604	-107.44	1452
-779.46	-107.44	1452
-778.989	-107.81	1457
-775.834	-107.81	1457
-775.861	-108.254	1463
-772.693	-108.254	1463
-769.525	-108.254	1463
-766.357	-108.254	1463
-752.975	-110.473	1493
-749.742	-110.473	1493
-747.509	-110.621	1495
-745.765	-110.843	1498
-742.522	-110.843	1498
-742.732	-111.361	1505
-739.473	-111.361	1505
-740.128	-111.953	1513
-736.852	-111.953	1513
-736.969	-112.471	1520
-733.678	-112.471	1520
-732.308	-112.767	1524
-729.008	-112.767	1524
-727.613	-113.063	1528
-724.304	-113.063	1528
-721.467	-113.137	1529
-718.156	-113.137	1529
-715.78	-113.285	1531
-712.465	-113.285	1531
-440.747	-72.4404	979
-438.627	-72.4404	979
-436.953	-72.5144	980
-434.831	-72.5144	980
-432.709	-72.5144	980
-470.57	-79.2479	1071
-468.251	-79.2479	1071
-465.931	-79.2479	1071
-463.612	-79.2479	1071
-463.016	-79.5439	1075
-460.688	-79.5439	1075
-459.639	-79.7658	1078
-457.305	-79.7658	1078
-455.815	-79.9138	1080
-453.476	-79.9138	1080
-451.138	-79.9138	1080
-448.799	-79.9138	1080
-446.047	-79.8398	1079
-442.888	-79.6918	1077
-440.556	-79.6918	1077
-438.224	-79.6918	1077
-435.891	-79.6918	1077
-433.559	-79.6918	1077
-431.227	-79.6918	1077
-428.497	-79.6179	1076
-426.167	-79.6179	1076
-425.018	-79.8398	1079
-422.682	-79.8398	1079
-331.702	-70.4426	952
