-187.504	-108.183	990
-186.365	-108.62	994
-184.469	-108.62	994
-183.308	-109.057	998
-181.404	-109.057	998
-180.04	-109.385	1001
-178.131	-109.385	1001
-176.574	-109.603	1003
-174.66	-109.603	1003
-173.264	-109.931	1006
-171.345	-109.931	1006
-169.426	-109.931	1006
-167.84	-110.15	1008
-165.917	-110.15	1008
-164.32	-110.368	1010
-162.393	-110.368	1010
-160.943	-110.696	1013
-159.011	-110.696	1013
-157.544	-111.024	1016
-155.606	-111.024	1016
-153.668	-111.024	1016
-152.327	-111.461	1020
-150.971	-111.898	1024
-149.018	-111.898	1024
-147.639	-112.335	1028
-145.678	-112.335	1028
-144.417	-112.881	1033
-142.446	-112.881	1033
-141.02	-113.319	1037
-139.042	-113.319	1037
-137.592	-113.756	1041
-135.607	-113.756	1041
-134.134	-114.193	1045
-132.141	-114.193	1045
-130.148	-114.193	1045
-128.768	-114.739	1050
-126.765	-114.739	1050
-125.237	-115.176	1054
-123.227	-115.176	1054
-121.561	-115.504	1057
-119.545	-115.504	1057
-117.973	-115.941	1061
-115.95	-115.941	1061
-114.355	-116.378	1065
-112.324	-116.378	1065
-110.707	-116.815	1069
-108.667	-116.815	1069
-106.728	-116.925	1070
-104.981	-117.252	1073
-102.934	-117.252	1073
-101.263	-117.69	1077
-99.2088	-117.69	1077
-97.5153	-118.127	1081
-95.4533	-118.127	1081
-93.7369	-118.564	1085
-91.6673	-118.564	1085
-90.0105	-119.11	1090
-87.9314	-119.11	1090
-85.8522	-119.11	1090
-84.1573	-119.657	1095
-82.2935	-119.984	1098
-80.199	-119.984	1098
-78.4603	-120.531	1103
-76.3563	-120.531	1103
-74.5216	-120.968	1107
-72.4101	-120.968	1107
-70.5525	-121.405	1111
-68.4333	-121.405	1111
-66.6125	-121.951	1116
-64.4837	-121.951	1116
-62.355	-121.951	1116
-60.4421	-122.388	1120
-58.3057	-122.388	1120
-56.3699	-122.826	1124
-54.2259	-122.826	1124
-52.2672	-123.263	1128
-50.1156	-123.263	1128
-48.1765	-123.809	1133
-46.0154	-123.809	1133
-44.0477	-124.355	1138
-41.877	-124.355	1138
-39.8458	-124.792	1142
-37.6675	-124.792	1142
-35.4891	-124.792	1142
-33.4274	-125.23	1146
-31.2415	-125.23	1146
-29.1569	-125.667	1150
-26.9633	-125.667	1150
-24.8558	-126.104	1154
-22.6546	-126.104	1154
-20.5242	-126.541	1158
-18.3154	-126.541	1158
-16.1204	-126.65	1159
-13.9096	-126.65	1159
-11.6988	-126.65	1159
20.5848	-75.0722	687
21.8953	-75.0722	687
23.2057	-75.0722	687
24.5161	-75.0722	687
25.8266	-75.0722	687
27.137	-75.0722	687
28.5303	-75.2907	689
29.8446	-75.2907	689
32.7868	-79.2246	725
34.3017	-70.9197	649
35.5397	-70.9197	649
36.7776	-70.9197	649
38.0156	-70.9197	649
39.2536	-70.9197	649
39.8558	-65.7838	602
41.0041	-65.7838	602
42.1524	-65.7838	602
43.3007	-65.7838	602
44.449	-65.7838	602
45.5973	-65.7838	602
46.8233	-65.893	603
47.9735	-65.893	603
49.2052	-66.0023	604
50.3573	-66.0023	604
51.5094	-66.0023	604
52.6615	-66.0023	604
66.6434	-81.738	748
67.9792	-81.6287	747
69.4041	-81.6287	747
70.829	-81.6287	747
72.2539	-81.6287	747
73.6788	-81.6287	747
75.1037	-81.6287	747
76.5286	-81.6287	747
77.9535	-81.6287	747
79.3784	-81.6287	747
80.8032	-81.6287	747
82.4483	-81.8472	749
83.877	-81.8472	749
93.0504	-89.278	817
92.9876	-87.7481	803
94.5194	-87.7481	803
96.0511	-87.7481	803
97.5828	-87.7481	803
99.1145	-87.7481	803
100.646	-87.7481	803
103.196	-88.6223	811
104.743	-88.6223	811
109.304	-91.1357	834
111.427	-91.5728	838
113.025	-91.5728	838
117.36	-93.7583	858
118.996	-93.7583	858
121.055	-94.0861	861
122.697	-94.0861	861
125.35	-94.851	868
127.006	-94.851	868
130.44	-96.1623	880
132.119	-96.1623	880
135.318	-97.2551	890
137.016	-97.2551	890
138.713	-97.2551	890
140.411	-97.2551	890
143.546	-98.2385	899
135.727	-91.7913	840
137.329	-91.7913	840
138.932	-91.7913	840
153.751	-100.424	919
155.504	-100.424	919
157.599	-100.643	921
158.837	-100.315	918
160.588	-100.315	918
164.107	-101.408	928
165.878	-101.408	928
168.19	-101.735	931
169.966	-101.735	931
171.741	-101.735	931
173.517	-101.735	931
175.293	-101.735	931
177.64	-102.063	934
179.421	-102.063	934
188.769	-106.325	973
190.625	-106.325	973
192.481	-106.325	973
192.939	-105.56	966
194.782	-105.56	966
196.217	-105.341	964
198.056	-105.341	964
198.443	-104.577	957
200.269	-104.577	957
202.094	-104.577	957
203.92	-104.577	957
224.922	-113.319	1037
226.9	-113.319	1037
228.878	-113.319	1037
230.857	-113.319	1037
232.386	-113.1	1035
234.36	-113.1	1035
237.019	-113.428	1038
238.999	-113.428	1038
249.105	-117.252	1073
246.236	-114.958	1052
248.243	-114.958	1052
250.249	-114.958	1052
259.689	-118.345	1083
261.755	-118.345	1083
265.526	-119.11	1090
268.096	-119.329	1092
271.169	-119.766	1096
273.758	-119.984	1098
275.853	-119.984	1098
278.2	-120.094	1099
280.297	-120.094	1099
282.907	-120.312	1101
285.007	-120.312	1101
287.107	-120.312	1101
313.899	-130.584	1195
315.914	-130.475	1194
317.125	-130.038	1190
319.395	-130.038	1190
321.665	-130.038	1190
324.207	-130.147	1191
325.931	-129.928	1189
328.199	-129.928	1189
330.467	-129.928	1189
333.015	-130.038	1190
335.285	-130.038	1190
351.533	-134.518	1231
353.881	-134.518	1231
356.229	-134.518	1231
358.577	-134.518	1231
356.82	-132.988	1217
359.142	-132.988	1217
361.463	-132.988	1217
363.785	-132.988	1217
366.106	-132.988	1217
361.767	-130.584	1195
364.047	-130.584	1195
366.326	-130.584	1195
298.054	-99.4406	910
299.789	-99.4406	910
301.525	-99.4406	910
303.261	-99.4406	910
304.997	-99.4406	910
306.733	-99.4406	910
309.146	-99.6591	912
310.886	-99.6591	912
312.969	-99.7684	913
314.71	-99.7684	913
316.452	-99.7684	913
320.284	-100.424	919
322.037	-100.424	919
370.177	-114.193	1045
372.17	-114.193	1045
374.164	-114.193	1045
387.316	-117.58	1076
390.454	-117.908	1079
392.512	-117.908	1079
384.697	-114.958	1052
386.703	-114.958	1052
388.71	-114.958	1052
388.117	-114.193	1045
388.99	-113.865	1042
390.978	-113.865	1042
391.08	-113.319	1037
393.058	-113.319	1037
395.036	-113.319	1037
403.522	-115.176	1054
405.533	-115.176	1054
416.437	-117.69	1077
418.491	-117.69	1077
423.669	-118.564	1085
425.739	-118.564	1085
432.54	-119.875	1097
434.633	-119.875	1097
438.716	-120.421	1102
440.818	-120.421	1102
443.322	-120.531	1103
445.426	-120.531	1103
445.095	-119.875	1097
447.188	-119.875	1097
438.632	-117.034	1071
440.675	-117.034	1071
442.304	-116.925	1070
444.345	-116.925	1070
446.386	-116.925	1070
450.104	-117.362	1074
450.889	-117.034	1071
452.932	-117.034	1071
454.975	-117.034	1071
457.445	-117.143	1072
459.49	-117.143	1072
460.243	-116.815	1069
462.282	-116.815	1069
463.452	-116.597	1067
465.488	-116.597	1067
467.523	-116.597	1067
538.675	-112.335	1028
540.636	-112.335	1028
542.597	-112.335	1028
544.557	-112.335	1028
546.518	-112.335	1028
557.016	-114.083	1044
559.007	-114.083	1044
581.249	-112.226	1027
583.208	-112.226	1027
585.167	-112.226	1027
587.126	-112.226	1027
589.085	-112.226	1027
591.044	-112.226	1027
621.332	-116.815	1069
623.371	-116.815	1069
625.41	-116.815	1069
627.449	-116.815	1069
637.732	-118.345	1083
626.211	-115.832	1060
628.233	-115.832	1060
889.487	-157.903	1445
892.244	-157.903	1445
894.381	-157.794	1444
897.135	-157.794	1444
-435.451	-78.4851	731
-435.245	-78.6999	733
-433.846	-78.6999	733
-432.448	-78.6999	733
-431.638	-78.8072	734
-430.238	-78.8072	734
-430.006	-79.022	736
-428.603	-79.022	736
-427.199	-79.022	736
-426.952	-79.2367	738
-425.544	-79.2367	738
-424.711	-79.3441	739
-423.301	-79.3441	739
-421.892	-79.3441	739
-420.482	-79.3441	739
-416.237	-78.8072	734
-414.837	-78.8072	734
-413.437	-78.8072	734
-401.932	-76.8746	716
-400.567	-76.8746	716
-399.201	-76.8746	716
-398.946	-77.0894	718
-397.577	-77.0894	718
-396.207	-77.0894	718
-394.838	-77.0894	718
-413.196	-80.9546	754
-411.758	-80.9546	754
-410.32	-80.9546	754
-409.966	-81.1693	756
-408.524	-81.1693	756
-408.159	-81.384	758
-406.713	-81.384	758
-406.336	-81.5988	760
-404.887	-81.5988	760
-404.499	-81.8135	762
-403.045	-81.8135	762
-402.646	-82.0283	764
-401.188	-82.0283	764
-401.301	-82.3503	767
-399.838	-82.3503	767
-398.375	-82.3503	767
-397.947	-82.5651	769
-396.48	-82.5651	769
-395.013	-82.5651	769
-394.569	-82.7798	771
-393.099	-82.7798	771
-392.136	-82.8872	772
-390.664	-82.8872	772
-390.199	-83.1019	774
-388.723	-83.1019	774
-387.246	-83.1019	774
-386.767	-83.3167	776
-385.287	-83.3167	776
-385.29	-83.6388	779
-383.804	-83.6388	779
-383.3	-83.8535	781
-381.81	-83.8535	781
-380.807	-83.9609	782
-379.316	-83.9609	782
-379.273	-84.283	785
-377.776	-84.283	785
-377.717	-84.6051	788
-376.214	-84.6051	788
-374.711	-84.6051	788
-374.628	-84.9272	791
-373.119	-84.9272	791
-373.02	-85.2493	794
-371.505	-85.2493	794
-371.389	-85.5714	797
-369.869	-85.5714	797
-369.273	-85.7861	799
-367.749	-85.7861	799
-367.141	-86.0008	801
-365.613	-86.0008	801
-364.995	-86.2156	803
-363.463	-86.2156	803
-361.931	-86.2156	803
-360.848	-86.3229	804
-360.208	-86.5377	806
-358.671	-86.5377	806
-358.02	-86.7524	808
-356.478	-86.7524	808
-356.255	-87.0745	811
-354.708	-87.0745	811
-353.597	-87.1819	812
-352.048	-87.1819	812
-351.362	-87.3966	814
-349.809	-87.3966	814
-348.257	-87.3966	814
-347.982	-87.7187	817
-346.423	-87.7187	817
-345.709	-87.9334	819
-344.147	-87.9334	819
-344.258	-88.3629	823
-342.688	-88.3629	823
-342.362	-88.685	826
-340.786	-88.685	826
-340.032	-88.8997	828
-338.452	-88.8997	828
-337.687	-89.1145	830
-336.103	-89.1145	830
-334.52	-89.1145	830
-333.739	-89.3292	832
-332.152	-89.3292	832
-331.36	-89.5439	834
-329.769	-89.5439	834
-328.965	-89.7587	836
-328.545	-90.0808	839
-326.945	-90.0808	839
-326.508	-90.4029	842
-324.902	-90.4029	842
-324.064	-90.6176	844
-322.454	-90.6176	844
-320.844	-90.6176	844
-319.99	-90.8323	846
-318.377	-90.8323	846
-317.512	-91.0471	848
-315.894	-91.0471	848
-315.018	-91.2618	850
-313.396	-91.2618	850
-312.142	-91.3692	851
-310.519	-91.3692	851
-308.895	-91.3692	851
-308.355	-91.6913	854
-306.726	-91.6913	854
-306.169	-92.0134	857
-305.6	-92.3355	860
-303.96	-92.3355	860
-303.374	-92.6576	863
-301.728	-92.6576	863
-301.125	-92.9797	866
-299.473	-92.9797	866
-298.853	-93.3018	869
-297.195	-93.3018	869
-296.558	-93.6239	872
-294.895	-93.6239	872
-293.231	-93.6239	872
-292.237	-93.8386	874
-290.57	-93.8386	874
-290.225	-94.2681	878
-288.55	-94.2681	878
-287.855	-94.5902	881
-287.149	-94.9123	884
-285.463	-94.9123	884
-284.74	-95.2344	887
-283.048	-95.2344	887
-282.308	-95.5565	890
-280.61	-95.5565	890
-279.539	-95.7712	892
-277.838	-95.7712	892
-276.136	-95.7712	892
-275.05	-95.9859	894
-273.345	-95.9859	894
-272.247	-96.2007	896
-270.538	-96.2007	896
-269.429	-96.4154	898
-267.716	-96.4154	898
-266.595	-96.6301	900
-265.762	-96.9522	903
-264.039	-96.9522	903
-262.317	-96.9522	903
-261.46	-97.2743	906
-259.732	-97.2743	906
-258.858	-97.5964	909
-257.124	-97.5964	909
-256.233	-97.9185	912
-254.493	-97.9185	912
-253.308	-98.1333	914
-251.565	-98.1333	914
-250.641	-98.4554	917
-248.892	-98.4554	917
-247.951	-98.7775	920
-246.196	-98.7775	920
-245.504	-99.2069	924
-243.742	-99.2069	924
-243.027	-99.6364	928
-241.257	-99.6364	928
-240.777	-100.173	933
-238.997	-100.173	933
-237.98	-100.495	936
-236.195	-100.495	936
-235.161	-100.817	939
-233.37	-100.817	939
-232.565	-101.247	943
-230.766	-101.247	943
-229.696	-101.569	946
-227.891	-101.569	946
-226.087	-101.569	946
-225.231	-101.998	950
-223.419	-101.998	950
-222.306	-102.321	953
-220.951	-102.535	955
-219.13	-102.535	955
-217.763	-102.75	957
-215.938	-102.75	957
-214.783	-103.072	960
-212.952	-103.072	960
-211.781	-103.394	963
-209.944	-103.394	963
-208.107	-103.394	963
-206.913	-103.716	966
-205.07	-103.716	966
-204.069	-104.146	970
-202.219	-104.146	970
-200.988	-104.468	973
-199.132	-104.468	973
-198.29	-105.005	978
-196.424	-105.005	978
-195.354	-105.434	982
-194.269	-105.864	986
-192.389	-105.864	986
-190.508	-105.864	986
-189.392	-106.293	990
-187.504	-106.293	990
-186.365	-106.723	994
-184.469	-106.723	994
-183.308	-107.152	998
-181.404	-107.152	998
-180.04	-107.474	1001
-178.131	-107.474	1001
-176.574	-107.689	1003
-174.66	-107.689	1003
-173.264	-108.011	1006
-171.345	-108.011	1006
-169.426	-108.011	1006
-167.84	-108.226	1008
-165.917	-108.226	1008
-164.32	-108.44	1010
-162.393	-108.44	1010
-160.943	-108.763	1013
-159.011	-108.763	1013
-157.544	-109.085	1016
-155.606	-109.085	1016
-154.273	-109.514	1020
-152.327	-109.514	1020
-150.971	-109.944	1024
-149.018	-109.944	1024
-147.639	-110.373	1028
-145.678	-110.373	1028
-144.277	-110.803	1032
-142.308	-110.803	1032
-140.884	-111.232	1036
-138.908	-111.232	1036
-137.46	-111.661	1040
-135.476	-111.661	1040
-134.134	-112.198	1045
-132.141	-112.198	1045
-130.148	-112.198	1045
-128.768	-112.735	1050
-126.765	-112.735	1050
-125.237	-113.165	1054
-123.227	-113.165	1054
-121.676	-113.594	1058
-119.658	-113.594	1058
-118.085	-114.024	1062
-116.059	-114.024	1062
-114.355	-114.346	1065
-112.324	-114.346	1065
-110.707	-114.775	1069
-108.667	-114.775	1069
-106.728	-114.882	1070
-104.981	-115.205	1073
-102.934	-115.205	1073
-101.263	-115.634	1077
-99.2088	-115.634	1077
-97.5153	-116.064	1081
-95.4533	-116.064	1081
-93.7369	-116.493	1085
-91.6673	-116.493	1085
-90.0105	-117.03	1090
-87.9314	-117.03	1090
-85.8522	-117.03	1090
-84.1573	-117.567	1095
-82.3684	-117.996	1099
-80.2721	-117.996	1099
-78.4603	-118.426	1103
-76.3563	-118.426	1103
-74.589	-118.962	1108
-72.4755	-118.962	1108
-70.616	-119.392	1112
-68.4949	-119.392	1112
-66.6125	-119.821	1116
-64.4837	-119.821	1116
-62.355	-119.821	1116
-60.4421	-120.251	1120
-58.3057	-120.251	1120
-56.3699	-120.68	1124
-54.2259	-120.68	1124
-52.2672	-121.11	1128
-50.1156	-121.11	1128
-48.1765	-121.647	1133
-46.0154	-121.647	1133
-44.0477	-122.183	1138
-41.877	-122.183	1138
-39.8458	-122.613	1142
-37.6675	-122.613	1142
-35.4891	-122.613	1142
-33.4274	-123.042	1146
-31.2415	-123.042	1146
-29.1569	-123.472	1150
-26.9633	-123.472	1150
-24.8774	-124.009	1155
-22.6742	-124.009	1155
-20.5242	-124.331	1158
-18.3154	-124.331	1158
-16.2178	-125.19	1166
-13.9936	-125.19	1166
-11.7695	-125.19	1166
20.5848	-73.761	687
21.8953	-73.761	687
23.2057	-73.761	687
24.5161	-73.761	687
25.8266	-73.761	687
27.137	-73.761	687
28.5717	-74.0831	690
29.8879	-74.0831	690
32.7868	-77.8409	725
34.3017	-69.6811	649
35.5397	-69.6811	649
36.7776	-69.6811	649
38.0156	-69.6811	649
39.2536	-69.6811	649
39.8558	-64.6348	602
41.0041	-64.6348	602
42.1524	-64.6348	602
43.3007	-64.6348	602
44.449	-64.6348	602
45.5973	-64.6348	602
46.8233	-64.7422	603
47.9735	-64.7422	603
49.2052	-64.8496	604
50.3573	-64.8496	604
51.5094	-64.8496	604
52.6615	-64.8496	604
66.6434	-80.3104	748
67.9792	-80.203	747
69.4041	-80.203	747
70.829	-80.203	747
72.2539	-80.203	747
73.6788	-80.203	747
75.1037	-80.203	747
76.5286	-80.203	747
77.9535	-80.203	747
79.3784	-80.203	747
80.8032	-80.203	747
87.622	-85.464	796
89.1403	-85.464	796
93.0504	-87.7187	817
92.9876	-86.2156	803
94.5194	-86.2156	803
96.0511	-86.2156	803
97.5828	-86.2156	803
99.1145	-86.2156	803
100.646	-86.2156	803
103.196	-87.0745	811
104.743	-87.0745	811
110.353	-90.4029	842
111.959	-90.4029	842
113.565	-90.4029	842
117.36	-92.1207	858
118.996	-92.1207	858
121.055	-92.4428	861
122.697	-92.4428	861
125.35	-93.1944	868
127.006	-93.1944	868
130.44	-94.4828	880
132.119	-94.4828	880
135.318	-95.5565	890
137.016	-95.5565	890
139.181	-95.8786	893
140.884	-95.8786	893
135.727	-90.1881	840
137.329	-90.1881	840
138.932	-90.1881	840
153.082	-98.2406	915
154.827	-98.2406	915
157.428	-98.7775	920
159.183	-98.7775	920
161.638	-99.2069	924
164.284	-99.7438	929
166.056	-99.7438	929
168.551	-100.173	933
170.331	-100.173	933
172.11	-100.173	933
173.89	-100.173	933
175.67	-100.173	933
177.64	-100.281	934
179.421	-100.281	934
181.203	-100.281	934
182.984	-100.281	934
179.425	-97.3817	907
181.155	-97.3817	907
194.782	-103.716	966
196.217	-103.502	964
198.056	-103.502	964
198.443	-102.75	957
200.269	-102.75	957
202.094	-102.75	957
203.92	-102.75	957
224.922	-111.339	1037
226.9	-111.339	1037
228.878	-111.339	1037
230.857	-111.339	1037
232.835	-111.339	1037
234.813	-111.339	1037
237.019	-111.447	1038
238.999	-111.447	1038
249.105	-115.205	1073
246.236	-112.95	1052
248.243	-112.95	1052
250.249	-112.95	1052
261.847	-117.245	1092
263.93	-117.245	1092
266.013	-117.245	1092
268.096	-117.245	1092
271.911	-117.996	1099
274.506	-118.211	1101
276.606	-118.211	1101
279.213	-118.426	1103
281.317	-118.426	1103
308.088	-128.733	1199
310.375	-128.733	1199
311.619	-128.303	1195
313.899	-128.303	1195
316.178	-128.303	1195
317.125	-127.767	1190
319.395	-127.767	1190
321.665	-127.767	1190
324.207	-127.874	1191
326.205	-127.767	1190
328.475	-127.767	1190
330.745	-127.767	1190
333.015	-127.767	1190
335.285	-127.767	1190
355.031	-132.598	1235
357.386	-132.598	1235
359.742	-132.598	1235
358.286	-131.202	1222
360.617	-131.202	1222
362.948	-131.202	1222
368.567	-132.383	1233
370.919	-132.383	1233
373.271	-132.383	1233
375.623	-132.383	1233
298.054	-97.7038	910
299.789	-97.7038	910
301.525	-97.7038	910
303.261	-97.7038	910
304.997	-97.7038	910
306.733	-97.7038	910
309.146	-97.9185	912
310.886	-97.9185	912
312.969	-98.0259	913
314.71	-98.0259	913
316.452	-98.0259	913
370.177	-112.198	1045
372.17	-112.198	1045
374.164	-112.198	1045
387.316	-115.527	1076
390.454	-115.849	1079
392.512	-115.849	1079
394.57	-115.849	1079
397.363	-116.064	1081
399.056	-115.956	1080
401.116	-115.956	1080
388.99	-111.876	1042
390.978	-111.876	1042
391.08	-111.339	1037
393.058	-111.339	1037
395.036	-111.339	1037
403.522	-113.165	1054
405.533	-113.165	1054
419.53	-116.493	1085
421.6	-116.493	1085
423.669	-116.493	1085
425.739	-116.493	1085
432.54	-117.781	1097
434.633	-117.781	1097
436.725	-117.781	1097
438.818	-117.781	1097
440.106	-117.567	1095
442.195	-117.567	1095
444.284	-117.567	1095
432.105	-113.809	1060
434.127	-113.809	1060
437.794	-114.238	1064
442.304	-114.882	1070
444.345	-114.882	1070
446.386	-114.882	1070
450.104	-115.312	1074
450.889	-114.99	1071
452.932	-114.99	1071
454.975	-114.99	1071
457.445	-115.097	1072
459.49	-115.097	1072
460.243	-114.775	1069
462.282	-114.775	1069
463.452	-114.56	1067
465.488	-114.56	1067
467.523	-114.56	1067
538.675	-110.373	1028
540.636	-110.373	1028
542.597	-110.373	1028
544.557	-110.373	1028
546.518	-110.373	1028
581.249	-110.266	1027
583.208	-110.266	1027
585.167	-110.266	1027
587.126	-110.266	1027
589.085	-110.266	1027
591.044	-110.266	1027
634.52	-113.487	1057
636.536	-113.487	1057
638.552	-113.487	1057
645.416	-114.346	1065
647.448	-114.346	1065
889.487	-155.145	1445
892.244	-155.145	1445
894.381	-155.038	1444
897.135	-155.038	1444
-435.451	-77.09	731
-435.245	-77.3009	733
-433.846	-77.3009	733
-432.448	-77.3009	733
-431.638	-77.4064	734
-430.238	-77.4064	734
-430.006	-77.6173	736
-428.603	-77.6173	736
-427.199	-77.6173	736
-426.952	-77.8282	738
-425.544	-77.8282	738
-424.711	-77.9337	739
-423.301	-77.9337	739
-422.463	-78.0391	740
-421.051	-78.0391	740
-416.237	-77.4064	734
-414.837	-77.4064	734
-413.437	-77.4064	734
-402.494	-75.6136	717
-401.126	-75.6136	717
-399.758	-75.6136	717
-398.391	-75.6136	717
-398.13	-75.8245	719
-396.759	-75.8245	719
-395.387	-75.8245	719
-413.196	-79.5155	754
-411.758	-79.5155	754
-410.32	-79.5155	754
-409.966	-79.7265	756
-408.524	-79.7265	756
-408.159	-79.9374	758
-406.713	-79.9374	758
-406.336	-80.1483	760
-404.887	-80.1483	760
-404.499	-80.3592	762
-403.045	-80.3592	762
-403.173	-80.6756	765
-401.714	-80.6756	765
-401.301	-80.8865	767
-399.838	-80.8865	767
-398.375	-80.8865	767
-397.947	-81.0974	769
-396.48	-81.0974	769
-395.013	-81.0974	769
-394.569	-81.3083	771
-393.099	-81.3083	771
-392.136	-81.4138	772
-390.664	-81.4138	772
-390.199	-81.6247	774
-388.723	-81.6247	774
-387.246	-81.6247	774
-386.767	-81.8356	776
-385.287	-81.8356	776
-384.796	-82.0465	778
-383.312	-82.0465	778
-382.809	-82.2575	780
-381.321	-82.2575	780
-380.807	-82.4684	782
-379.316	-82.4684	782
-379.273	-82.7848	785
-377.776	-82.7848	785
-377.717	-83.1011	788
-376.214	-83.1011	788
-374.711	-83.1011	788
-374.628	-83.4175	791
-373.119	-83.4175	791
-373.02	-83.7339	794
-371.505	-83.7339	794
-371.389	-84.0502	797
-369.869	-84.0502	797
-369.273	-84.2612	799
-367.749	-84.2612	799
-367.141	-84.4721	801
-365.613	-84.4721	801
-364.995	-84.683	803
-363.463	-84.683	803
-361.931	-84.683	803
-360.848	-84.7885	804
-359.315	-84.7885	804
-358.671	-84.9994	806
-358.02	-85.2103	808
-356.478	-85.2103	808
-356.255	-85.5267	811
-354.708	-85.5267	811
-353.597	-85.6321	812
-352.048	-85.6321	812
-351.362	-85.843	814
-349.809	-85.843	814
-348.257	-85.843	814
-347.982	-86.1594	817
-346.423	-86.1594	817
-345.709	-86.3703	819
-344.147	-86.3703	819
-344.258	-86.7922	823
-342.688	-86.7922	823
-342.362	-87.1085	826
-340.786	-87.1085	826
-340.032	-87.3195	828
-338.452	-87.3195	828
-337.687	-87.5304	830
-336.103	-87.5304	830
-334.52	-87.5304	830
-333.739	-87.7413	832
-332.152	-87.7413	832
-331.36	-87.9522	834
-329.769	-87.9522	834
-328.965	-88.1631	836
-328.545	-88.4795	839
-326.945	-88.4795	839
-326.508	-88.7959	842
-324.902	-88.7959	842
-324.064	-89.0068	844
-322.454	-89.0068	844
-320.844	-89.0068	844
-319.99	-89.2177	846
-318.377	-89.2177	846
-317.512	-89.4286	848
-315.894	-89.4286	848
-315.018	-89.6395	850
-313.396	-89.6395	850
-312.509	-89.8505	852
-310.883	-89.8505	852
-310.347	-90.1668	855
-308.716	-90.1668	855
-307.085	-90.1668	855
-306.526	-90.4832	858
-305.956	-90.7996	861
-304.313	-90.7996	861
-303.726	-91.116	864
-302.078	-91.116	864
-301.473	-91.4323	867
-299.819	-91.4323	867
-298.853	-91.6432	869
-297.195	-91.6432	869
-296.558	-91.9596	872
-294.895	-91.9596	872
-293.231	-91.9596	872
-292.237	-92.1705	874
-290.57	-92.1705	874
-290.225	-92.5924	878
-288.55	-92.5924	878
-287.855	-92.9087	881
-287.149	-93.2251	884
-285.463	-93.2251	884
-284.74	-93.5415	887
-283.048	-93.5415	887
-282.308	-93.8579	890
-280.61	-93.8579	890
-279.539	-94.0688	892
-277.838	-94.0688	892
-276.136	-94.0688	892
-275.05	-94.2797	894
-273.345	-94.2797	894
-271.943	-94.3852	895
-270.236	-94.3852	895
-269.129	-94.5961	897
-267.716	-94.7015	898
-266.299	-94.807	899
-265.467	-95.1234	902
-263.747	-95.1234	902
-262.026	-95.1234	902
-261.171	-95.4397	905
-259.445	-95.4397	905
-258.573	-95.7561	908
-256.841	-95.7561	908
-255.952	-96.0725	911
-254.214	-96.0725	911
-253.031	-96.2834	913
-251.289	-96.2834	913
-250.094	-96.4943	915
-248.349	-96.4943	915
-246.604	-96.4943	915
-245.929	-96.9162	919
-245.239	-97.338	923
-243.478	-97.338	923
-242.765	-97.7598	927
-240.997	-97.7598	927
-240.519	-98.2871	932
-238.741	-98.2871	932
-237.726	-98.6035	935
-235.942	-98.6035	935
-235.161	-99.0253	939
-233.37	-99.0253	939
-232.318	-99.3417	942
-230.521	-99.3417	942
-229.696	-99.7635	946
-227.891	-99.7635	946
-226.087	-99.7635	946
-225.231	-100.185	950
-223.419	-100.185	950
-222.306	-100.502	953
-220.951	-100.713	955
-219.13	-100.713	955
-217.763	-100.924	957
-215.938	-100.924	957
-214.783	-101.24	960
-212.952	-101.24	960
-211.781	-101.556	963
-209.944	-101.556	963
-208.107	-101.556	963
-206.913	-101.873	966
-205.07	-101.873	966
-204.069	-102.295	970
-202.219	-102.295	970
-200.988	-102.611	973
-199.132	-102.611	973
-198.29	-103.138	978
-196.424	-103.138	978
-195.354	-103.56	982
-194.269	-103.982	986
-192.389	-103.982	986
-190.508	-103.982	986
-189.392	-104.404	990
-187.504	-104.404	990
-186.365	-104.826	994
-184.469	-104.826	994
-183.308	-105.247	998
-181.404	-105.247	998
-180.04	-105.564	1001
-178.131	-105.564	1001
-176.574	-105.775	1003
-174.66	-105.775	1003
-173.264	-106.091	1006
-171.345	-106.091	1006
-169.426	-106.091	1006
-167.84	-106.302	1008
-165.917	-106.302	1008
-164.32	-106.513	1010
-162.393	-106.513	1010
-160.943	-106.829	1013
-159.011	-106.829	1013
-157.544	-107.146	1016
-156.219	-107.567	1020
-154.273	-107.567	1020
-152.327	-107.567	1020
-150.971	-107.989	1024
-149.018	-107.989	1024
-147.639	-108.411	1028
-145.678	-108.411	1028
-144.277	-108.833	1032
-142.308	-108.833	1032
-140.884	-109.255	1036
-138.908	-109.255	1036
-137.46	-109.677	1040
-135.476	-109.677	1040
-134.134	-110.204	1045
-132.141	-110.204	1045
-130.148	-110.204	1045
-128.768	-110.731	1050
-126.765	-110.731	1050
-125.237	-111.153	1054
-123.227	-111.153	1054
-121.676	-111.575	1058
-119.658	-111.575	1058
-118.085	-111.997	1062
-116.059	-111.997	1062
-114.463	-112.419	1066
-112.429	-112.419	1066
-110.81	-112.84	1070
-108.769	-112.84	1070
-106.728	-112.84	1070
-104.981	-113.157	1073
-102.934	-113.157	1073
-101.263	-113.579	1077
-99.2088	-113.579	1077
-97.5153	-114	1081
-95.4533	-114	1081
-93.7369	-114.422	1085
-91.6673	-114.422	1085
-90.0105	-114.95	1090
-87.9314	-114.95	1090
-85.8522	-114.95	1090
-84.1573	-115.477	1095
-82.3684	-115.899	1099
-80.2721	-115.899	1099
-78.4603	-116.32	1103
-76.3563	-116.32	1103
-74.589	-116.848	1108
-72.4755	-116.848	1108
-70.616	-117.27	1112
-68.4949	-117.27	1112
-66.6125	-117.691	1116
-64.4837	-117.691	1116
-62.5785	-118.113	1120
-60.4421	-118.113	1120
-58.3057	-118.113	1120
-56.3699	-118.535	1124
-54.2259	-118.535	1124
-52.2672	-118.957	1128
-50.1156	-118.957	1128
-48.1765	-119.484	1133
-46.0154	-119.484	1133
-44.009	-119.906	1137
-41.8402	-119.906	1137
-39.8458	-120.433	1142
-37.6675	-120.433	1142
-35.4891	-120.433	1142
-33.4274	-120.855	1146
-31.2415	-120.855	1146
-29.1569	-121.277	1150
-26.9633	-121.277	1150
-24.8774	-121.804	1155
-22.6742	-121.804	1155
-20.5242	-122.121	1158
-18.3154	-122.121	1158
-16.2178	-122.964	1166
-13.9936	-122.964	1166
-11.7695	-122.964	1166
-9.64361	-124.23	1178
-7.39659	-124.23	1178
20.5848	-72.4498	687
21.7359	-71.9225	682
23.0368	-71.9225	682
24.3377	-71.9225	682
25.6386	-71.9225	682
26.9395	-71.9225	682
28.5717	-72.7662	690
29.8879	-72.7662	690
32.6964	-76.2463	723
34.0755	-76.2463	723
35.4546	-76.2463	723
34.3017	-68.4424	649
35.5397	-68.4424	649
36.7776	-68.4424	649
38.0156	-68.4424	649
39.2536	-68.4424	649
39.7896	-63.3804	601
40.936	-63.3804	601
42.0824	-63.3804	601
43.3007	-63.4859	602
44.449	-63.4859	602
45.5973	-63.4859	602
46.7456	-63.4859	602
47.8939	-63.4859	602
49.1237	-63.5913	603
50.2739	-63.5913	603
51.5094	-63.6968	604
52.6615	-63.6968	604
66.6434	-78.8828	748
67.7972	-78.5664	745
69.2183	-78.5664	745
70.6394	-78.5664	745
72.0604	-78.5664	745
73.3829	-78.461	744
74.8021	-78.461	744
76.2212	-78.461	744
77.9535	-78.7773	747
79.3784	-78.7773	747
80.8032	-78.7773	747
87.622	-83.9448	796
89.1403	-83.9448	796
93.0504	-86.1594	817
92.9876	-84.683	803
94.5194	-84.683	803
96.0511	-84.683	803
97.5828	-84.683	803
99.1145	-84.683	803
100.646	-84.683	803
103.196	-85.5267	811
104.743	-85.5267	811
110.353	-88.7959	842
111.959	-88.7959	842
113.565	-88.7959	842
117.36	-90.4832	858
118.996	-90.4832	858
121.055	-90.7996	861
122.697	-90.7996	861
125.35	-91.5378	868
127.006	-91.5378	868
130.44	-92.8033	880
132.119	-92.8033	880
135.318	-93.8579	890
137.016	-93.8579	890
139.181	-94.1742	893
140.884	-94.1742	893
135.727	-88.585	840
137.329	-88.585	840
138.932	-88.585	840
153.082	-96.4943	915
154.827	-96.4943	915
157.428	-97.0216	920
159.183	-97.0216	920
161.638	-97.4435	924
164.284	-97.9707	929
166.056	-97.9707	929
168.551	-98.3926	933
170.331	-98.3926	933
172.11	-98.3926	933
173.89	-98.3926	933
175.67	-98.3926	933
177.64	-98.498	934
179.421	-98.498	934
181.203	-98.498	934
182.984	-98.498	934
179.425	-95.6507	907
181.155	-95.6507	907
182.885	-95.6507	907
187.465	-97.1271	921
189.222	-97.1271	921
195.955	-99.6581	945
197.758	-99.6581	945
201.461	-100.607	954
202.428	-100.185	950
204.24	-100.185	950
206.052	-100.185	950
226.9	-109.36	1037
228.878	-109.36	1037
230.857	-109.36	1037
232.835	-109.36	1037
234.813	-109.36	1037
237.019	-109.466	1038
238.999	-109.466	1038
241.908	-109.888	1042
243.895	-109.888	1042
247.063	-110.415	1047
249.06	-110.415	1047
251.297	-110.52	1048
253.296	-110.52	1048
256.269	-110.942	1052
258.276	-110.942	1052
260.283	-110.942	1052
271.764	-114.95	1090
273.843	-114.95	1090
277.188	-115.477	1095
279.276	-115.477	1095
286.504	-117.586	1115
288.631	-117.586	1115
309.794	-125.284	1188
313.374	-125.812	1193
315.649	-125.812	1193
317.125	-125.495	1190
319.395	-125.495	1190
321.395	-125.39	1189
323.663	-125.39	1189
325.931	-125.39	1189
328.199	-125.39	1189
330.467	-125.39	1189
333.015	-125.495	1190
335.285	-125.495	1190
357.386	-130.241	1235
356.829	-129.186	1225
357.114	-128.448	1218
359.437	-128.448	1218
361.76	-128.448	1218
364.084	-128.448	1218
366.407	-128.448	1218
373.271	-130.03	1233
375.623	-130.03	1233
298.054	-95.967	910
299.789	-95.967	910
301.525	-95.967	910
303.261	-95.967	910
304.997	-95.967	910
306.733	-95.967	910
308.469	-95.967	910
310.204	-95.967	910
312.283	-96.0725	911
314.71	-96.2834	913
316.452	-96.2834	913
368.031	-111.364	1056
370.045	-111.364	1056
372.059	-111.364	1056
370.177	-110.204	1045
372.17	-110.204	1045
374.164	-110.204	1045
387.316	-113.473	1076
390.454	-113.789	1079
392.512	-113.789	1079
394.57	-113.789	1079
397.363	-114	1081
399.056	-113.895	1080
399.63	-113.473	1076
388.99	-109.888	1042
390.978	-109.888	1042
391.08	-109.36	1037
393.058	-109.36	1037
395.036	-109.36	1037
403.522	-111.153	1054
405.533	-111.153	1054
419.53	-114.422	1085
421.6	-114.422	1085
423.669	-114.422	1085
425.739	-114.422	1085
432.54	-115.688	1097
434.633	-115.688	1097
436.725	-115.688	1097
438.818	-115.688	1097
440.106	-115.477	1095
442.195	-115.477	1095
444.284	-115.477	1095
432.105	-111.786	1060
434.127	-111.786	1060
437.794	-112.208	1064
439.824	-112.208	1064
443.515	-112.629	1068
445.552	-112.629	1068
450.104	-113.262	1074
452.152	-113.262	1074
455.047	-113.473	1076
457.099	-113.473	1076
458.298	-113.262	1074
460.347	-113.262	1074
459.812	-112.629	1068
461.849	-112.629	1068
463.452	-112.524	1067
465.488	-112.524	1067
467.523	-112.524	1067
471.759	-113.051	1072
473.803	-113.051	1072
475.848	-113.051	1072
480.122	-113.579	1077
483.967	-114	1081
486.029	-114	1081
538.675	-108.411	1028
540.636	-108.411	1028
542.597	-108.411	1028
544.557	-108.411	1028
546.518	-108.411	1028
581.249	-108.306	1027
583.208	-108.306	1027
585.167	-108.306	1027
587.126	-108.306	1027
589.085	-108.306	1027
591.044	-108.306	1027
634.52	-111.469	1057
636.536	-111.469	1057
638.552	-111.469	1057
645.416	-112.313	1065
647.448	-112.313	1065
890.103	-152.493	1446
892.861	-152.493	1446
895.619	-152.493	1446
898.378	-152.493	1446
-435.451	-75.6949	731
-434.651	-75.7984	732
-433.255	-75.7984	732
-431.858	-75.7984	732
-431.638	-76.0055	734
-430.238	-76.0055	734
-430.006	-76.2126	736
-428.603	-76.2126	736
-427.199	-76.2126	736
-426.952	-76.4197	738
-425.544	-76.4197	738
-424.711	-76.5233	739
-423.301	-76.5233	739
-422.463	-76.6268	740
-421.051	-76.6268	740
-416.237	-76.0055	734
-414.837	-76.0055	734
-413.437	-76.0055	734
-402.494	-74.2452	717
-401.126	-74.2452	717
-399.758	-74.2452	717
-398.391	-74.2452	717
-397.577	-74.3487	718
-396.207	-74.3487	718
-394.838	-74.3487	718
-413.196	-78.0765	754
-411.758	-78.0765	754
-410.32	-78.0765	754
-409.966	-78.2836	756
-408.524	-78.2836	756
-408.159	-78.4907	758
-406.713	-78.4907	758
-406.336	-78.6978	760
-404.887	-78.6978	760
-404.499	-78.9049	762
-403.045	-78.9049	762
-403.173	-79.2155	765
-401.714	-79.2155	765
-401.301	-79.4226	767
-399.838	-79.4226	767
-398.375	-79.4226	767
-397.947	-79.6297	769
-396.48	-79.6297	769
-395.013	-79.6297	769
-394.569	-79.8368	771
-393.099	-79.8368	771
-392.136	-79.9404	772
-390.664	-79.9404	772
-390.199	-80.1475	774
-388.723	-80.1475	774
-387.246	-80.1475	774
-386.767	-80.3546	776
-385.287	-80.3546	776
-384.796	-80.5617	778
-383.312	-80.5617	778
-382.809	-80.7688	780
-381.321	-80.7688	780
-381.294	-81.0794	783
-379.801	-81.0794	783
-379.273	-81.2865	785
-377.776	-81.2865	785
-377.717	-81.5972	788
-376.214	-81.5972	788
-374.711	-81.5972	788
-374.628	-81.9078	791
-373.119	-81.9078	791
-373.02	-82.2185	794
-371.505	-82.2185	794
-371.389	-82.5291	797
-369.869	-82.5291	797
-369.273	-82.7362	799
-367.749	-82.7362	799
-367.141	-82.9433	801
-365.613	-82.9433	801
-364.995	-83.1504	803
-363.463	-83.1504	803
-361.931	-83.1504	803
-360.848	-83.254	804
-359.315	-83.254	804
-358.671	-83.4611	806
-358.02	-83.6682	808
-356.478	-83.6682	808
-355.816	-83.8753	810
-354.271	-83.8753	810
-353.597	-84.0824	812
-352.048	-84.0824	812
-351.362	-84.2895	814
-349.809	-84.2895	814
-348.257	-84.2895	814
-347.982	-84.6001	817
-346.423	-84.6001	817
-345.709	-84.8072	819
-344.147	-84.8072	819
-344.258	-85.2214	823
-342.688	-85.2214	823
-342.362	-85.5321	826
-340.786	-85.5321	826
-340.032	-85.7392	828
-338.452	-85.7392	828
-337.687	-85.9463	830
-336.103	-85.9463	830
-334.52	-85.9463	830
-333.739	-86.1534	832
-332.152	-86.1534	832
-330.963	-86.2569	833
-329.374	-86.2569	833
-328.965	-86.5676	836
-328.154	-86.7747	838
-326.555	-86.7747	838
-326.12	-87.0853	841
-324.516	-87.0853	841
-324.064	-87.396	844
-322.454	-87.396	844
-320.844	-87.396	844
-319.99	-87.6031	846
-318.377	-87.6031	846
-317.512	-87.8102	848
-315.894	-87.8102	848
-315.018	-88.0173	850
-313.396	-88.0173	850
-312.509	-88.2244	852
-310.883	-88.2244	852
-310.347	-88.535	855
-308.716	-88.535	855
-307.085	-88.535	855
-306.526	-88.8457	858
-305.956	-89.1563	861
-304.313	-89.1563	861
-303.726	-89.467	864
-302.078	-89.467	864
-301.473	-89.7776	867
-299.819	-89.7776	867
-298.853	-89.9847	869
-297.195	-89.9847	869
-296.558	-90.2954	872
-294.895	-90.2954	872
-293.231	-90.2954	872
-292.237	-90.5025	874
-290.57	-90.5025	874
-289.894	-90.8131	877
-288.221	-90.8131	877
-287.855	-91.2273	881
-287.149	-91.538	884
-285.463	-91.538	884
-284.74	-91.8486	887
-283.048	-91.8486	887
-281.99	-92.0557	889
-280.295	-92.0557	889
-279.539	-92.3664	892
-277.838	-92.3664	892
-276.136	-92.3664	892
-275.05	-92.5735	894
-273.345	-92.5735	894
-271.943	-92.677	895
-270.236	-92.677	895
-269.129	-92.8841	897
-268.014	-93.0912	899
-266.299	-93.0912	899
-265.467	-93.4019	902
-263.747	-93.4019	902
-262.026	-93.4019	902
-261.171	-93.7125	905
-259.445	-93.7125	905
-258.573	-94.0232	908
-256.841	-94.0232	908
-255.952	-94.3338	911
-254.214	-94.3338	911
-253.031	-94.5409	913
-251.289	-94.5409	913
-250.094	-94.748	915
-248.349	-94.748	915
-246.604	-94.748	915
-245.929	-95.1622	919
-245.239	-95.5764	923
-243.478	-95.5764	923
-242.765	-95.9906	927
-240.997	-95.9906	927
-240.519	-96.5084	932
-238.741	-96.5084	932
-237.726	-96.819	935
-235.942	-96.819	935
-235.161	-97.2332	939
-233.37	-97.2332	939
-232.318	-97.5439	942
-230.521	-97.5439	942
-229.696	-97.9581	946
-227.891	-97.9581	946
-226.087	-97.9581	946
-225.231	-98.3722	950
-223.419	-98.3722	950
-222.306	-98.6829	953
-220.951	-98.89	955
-219.13	-98.89	955
-217.991	-99.2006	958
-216.163	-99.2006	958
-214.783	-99.4077	960
-212.952	-99.4077	960
-211.781	-99.7184	963
-209.944	-99.7184	963
-208.107	-99.7184	963
-206.913	-100.029	966
-205.07	-100.029	966
-204.069	-100.443	970
-202.219	-100.443	970
-200.988	-100.754	973
-199.132	-100.754	973
-198.087	-101.168	977
-196.223	-101.168	977
-195.155	-101.582	981
-194.072	-101.996	985
-192.193	-101.996	985
-190.315	-101.996	985
-189.201	-102.411	989
-187.314	-102.411	989
-186.178	-102.825	993
-184.284	-102.825	993
-183.124	-103.239	997
-181.223	-103.239	997
-179.86	-103.55	1000
-177.953	-103.55	1000
-176.574	-103.86	1003
-174.66	-103.86	1003
-173.092	-104.067	1005
-171.175	-104.067	1005
-169.258	-104.067	1005
-167.84	-104.378	1008
-165.917	-104.378	1008
-164.32	-104.585	1010
-162.393	-104.585	1010
-160.943	-104.896	1013
-159.011	-104.896	1013
-157.544	-105.207	1016
-156.219	-105.621	1020
-154.273	-105.621	1020
-152.327	-105.621	1020
-150.971	-106.035	1024
-149.018	-106.035	1024
-147.639	-106.449	1028
-145.678	-106.449	1028
-144.277	-106.863	1032
-142.308	-106.863	1032
-140.748	-107.174	1035
-138.773	-107.174	1035
-137.328	-107.588	1039
-135.346	-107.588	1039
-134.006	-108.106	1044
-132.015	-108.106	1044
-130.023	-108.106	1044
-128.645	-108.624	1049
-126.644	-108.624	1049
-125.237	-109.141	1054
-123.227	-109.141	1054
-121.676	-109.556	1058
-119.658	-109.556	1058
-118.085	-109.97	1062
-116.059	-109.97	1062
-114.463	-110.384	1066
-112.429	-110.384	1066
-110.81	-110.798	1070
-108.769	-110.798	1070
-106.728	-110.798	1070
-104.981	-111.109	1073
-102.934	-111.109	1073
-101.263	-111.523	1077
-99.2088	-111.523	1077
-97.5153	-111.937	1081
-95.4533	-111.937	1081
-93.7369	-112.351	1085
-91.6673	-112.351	1085
-90.0931	-112.973	1091
-88.4154	-113.491	1096
-86.3248	-113.491	1096
-84.2342	-113.491	1096
-82.4434	-113.905	1100
-80.3451	-113.905	1100
-78.5314	-114.319	1104
-76.4256	-114.319	1104
-74.589	-114.733	1108
-72.4755	-114.733	1108
-70.616	-115.147	1112
-68.4949	-115.147	1112
-66.6125	-115.562	1116
-64.4837	-115.562	1116
-62.5785	-115.976	1120
-60.4421	-115.976	1120
-58.3057	-115.976	1120
-56.3699	-116.39	1124
-54.2259	-116.39	1124
-52.2672	-116.804	1128
-50.1156	-116.804	1128
-48.1765	-117.322	1133
-46.0154	-117.322	1133
-44.009	-117.736	1137
-41.8402	-117.736	1137
-39.8458	-118.254	1142
-37.6675	-118.254	1142
-35.4891	-118.254	1142
-33.4274	-118.668	1146
-31.2415	-118.668	1146
-29.1822	-119.186	1151
-26.9867	-119.186	1151
-24.8989	-119.703	1156
-22.6938	-119.703	1156
-20.5597	-120.118	1160
-18.347	-120.118	1160
-16.2178	-120.739	1166
-13.9936	-120.739	1166
-11.8906	-121.982	1178
-9.64361	-121.982	1178
-7.39659	-121.982	1178
21.7359	-70.6209	682
23.0368	-70.6209	682
24.3377	-70.6209	682
25.6386	-70.6209	682
26.9395	-70.6209	682
29.4413	-73.6239	711
31.3606	-74.97	724
32.6964	-74.8665	723
34.0755	-74.8665	723
35.4546	-74.8665	723
36.7776	-67.2038	649
38.0156	-67.2038	649
39.2536	-67.2038	649
39.7896	-62.2334	601
40.936	-62.2334	601
42.0824	-62.2334	601
43.3007	-62.3369	602
44.449	-62.3369	602
45.5973	-62.3369	602
46.7456	-62.3369	602
47.8939	-62.3369	602
49.1237	-62.4405	603
50.2739	-62.4405	603
51.5094	-62.544	604
52.6615	-62.544	604
66.6434	-77.4552	748
67.7972	-77.1446	745
69.2183	-77.1446	745
70.6394	-77.1446	745
72.0604	-77.1446	745
73.3829	-77.041	744
74.8021	-77.041	744
76.2212	-77.041	744
82.8582	-82.2185	794
84.5852	-82.4256	796
86.1036	-82.4256	796
87.622	-82.4256	796
89.1403	-82.4256	796
91.342	-83.0469	802
92.6402	-82.8398	800
94.1662	-82.8398	800
95.6922	-82.8398	800
97.3397	-82.9433	801
98.8676	-82.9433	801
100.396	-82.9433	801
103.196	-83.9788	811
104.743	-83.9788	811
110.091	-86.9818	840
111.826	-87.0853	841
113.43	-87.0853	841
115.308	-87.2924	843
116.777	-87.1889	842
118.383	-87.1889	842
119.989	-87.1889	842
122.317	-87.7066	847
123.933	-87.7066	847
123.918	-86.5676	836
125.513	-86.5676	836
127.108	-86.5676	836
129.934	-87.396	844
130.92	-86.9818	840
132.523	-86.9818	840
134.125	-86.9818	840
135.727	-86.9818	840
137.329	-86.9818	840
138.932	-86.9818	840
152.58	-94.4374	912
154.319	-94.4374	912
156.915	-94.9551	917
158.664	-94.9551	917
161.638	-95.68	924
163.4	-95.68	924
166.056	-96.1977	929
168.551	-96.6119	933
170.331	-96.6119	933
172.11	-96.6119	933
173.89	-96.6119	933
175.67	-96.6119	933
177.64	-96.7155	934
179.421	-96.7155	934
181.203	-96.7155	934
182.984	-96.7155	934
179.425	-93.9196	907
181.155	-93.9196	907
182.885	-93.9196	907
187.465	-95.3693	921
188.4	-94.9551	917
190.149	-94.9551	917
197.758	-97.8545	945
201.461	-98.7864	954
202.428	-98.3722	950
204.24	-98.3722	950
206.052	-98.3722	950
227.119	-107.485	1038
229.099	-107.485	1038
231.079	-107.485	1038
233.059	-107.485	1038
235.039	-107.485	1038
237.476	-107.692	1040
239.46	-107.692	1040
241.908	-107.899	1042
243.895	-107.899	1042
247.063	-108.417	1047
249.06	-108.417	1047
251.297	-108.52	1048
253.296	-108.52	1048
256.269	-108.934	1052
258.276	-108.934	1052
260.283	-108.934	1052
271.764	-112.869	1090
273.843	-112.869	1090
277.188	-113.387	1095
279.276	-113.387	1095
286.504	-115.458	1115
288.631	-115.458	1115
309.794	-123.017	1188
313.374	-123.535	1193
315.649	-123.535	1193
317.125	-123.224	1190
319.395	-123.224	1190
321.395	-123.121	1189
323.663	-123.121	1189
325.931	-123.121	1189
328.199	-123.121	1189
330.467	-123.121	1189
356.829	-126.848	1225
357.114	-126.124	1218
359.437	-126.124	1218
361.76	-126.124	1218
364.084	-126.124	1218
366.407	-126.124	1218
298.054	-94.2303	910
299.789	-94.2303	910
301.525	-94.2303	910
303.261	-94.2303	910
304.997	-94.2303	910
306.733	-94.2303	910
308.469	-94.2303	910
310.204	-94.2303	910
312.283	-94.3338	911
314.021	-94.3338	911
368.031	-109.349	1056
370.045	-109.349	1056
372.059	-109.349	1056
375.49	-109.763	1060
377.512	-109.763	1060
385.263	-111.42	1076
387.316	-111.42	1076
393.349	-112.559	1087
395.422	-112.559	1087
396.764	-112.351	1085
398.834	-112.351	1085
399.425	-111.937	1081
399.63	-111.42	1076
401.683	-111.42	1076
403.36	-111.316	1075
405.411	-111.316	1075
407.461	-111.316	1075
401.512	-109.141	1054
403.522	-109.141	1054
405.533	-109.141	1054
421.077	-112.766	1089
423.154	-112.766	1089
426.012	-112.973	1091
428.093	-112.973	1091
431.751	-113.387	1095
433.84	-113.387	1095
436.725	-113.594	1097
438.818	-113.594	1097
439.704	-113.283	1094
441.791	-113.283	1094
432.517	-110.384	1066
434.551	-110.384	1066
436.584	-110.384	1066
437.794	-110.177	1064
439.824	-110.177	1064
443.515	-110.591	1068
445.552	-110.591	1068
450.104	-111.212	1074
452.152	-111.212	1074
455.047	-111.42	1076
457.099	-111.42	1076
458.298	-111.212	1074
460.347	-111.212	1074
459.812	-110.591	1068
461.849	-110.591	1068
463.452	-110.488	1067
465.488	-110.488	1067
467.523	-110.488	1067
471.759	-111.005	1072
473.803	-111.005	1072
475.848	-111.005	1072
480.122	-111.523	1077
483.967	-111.937	1081
486.029	-111.937	1081
634.52	-109.452	1057
636.536	-109.452	1057
638.552	-109.452	1057
645.416	-110.28	1065
647.448	-110.28	1065
885.198	-149.836	1447
887.958	-149.836	1447
890.103	-149.733	1446
892.861	-149.733	1446
895.619	-149.733	1446
898.378	-149.733	1446
-435.451	-74.2997	731
-434.651	-74.4014	732
-433.255	-74.4014	732
-431.858	-74.4014	732
-431.638	-74.6046	734
-430.238	-74.6046	734
-430.006	-74.8079	736
-428.603	-74.8079	736
-427.199	-74.8079	736
-426.952	-75.0112	738
-425.544	-75.0112	738
-425.286	-75.2145	740
-423.874	-75.2145	740
-422.463	-75.2145	740
-421.051	-75.2145	740
-419.072	-75.1128	739
-417.663	-75.1128	739
-416.253	-75.1128	739
-403.055	-72.9784	718
-401.685	-72.9784	718
-400.316	-72.9784	718
-398.946	-72.9784	718
-397.577	-72.9784	718
-396.207	-72.9784	718
-394.838	-72.9784	718
-413.196	-76.6375	754
-411.758	-76.6375	754
-410.32	-76.6375	754
-409.966	-76.8407	756
-408.524	-76.8407	756
-408.159	-77.044	758
-406.713	-77.044	758
-406.336	-77.2473	760
-404.887	-77.2473	760
-404.499	-77.4506	762
-403.045	-77.4506	762
-403.173	-77.7555	765
-401.714	-77.7555	765
-401.301	-77.9588	767
-399.838	-77.9588	767
-398.375	-77.9588	767
-397.947	-78.1621	769
-396.48	-78.1621	769
-395.013	-78.1621	769
-394.569	-78.3654	771
-393.099	-78.3654	771
-392.136	-78.467	772
-390.664	-78.467	772
-390.199	-78.6703	774
-388.723	-78.6703	774
-388.247	-78.8736	776
-386.767	-78.8736	776
-385.287	-78.8736	776
-384.796	-79.0769	778
-383.312	-79.0769	778
-383.3	-79.3818	781
-381.81	-79.3818	781
-381.294	-79.5851	783
-379.801	-79.5851	783
-379.273	-79.7883	785
-377.776	-79.7883	785
-377.717	-80.0933	788
-376.214	-80.0933	788
-374.711	-80.0933	788
-374.628	-80.3982	791
-373.119	-80.3982	791
-373.02	-80.7031	794
-371.505	-80.7031	794
-371.389	-81.008	797
-369.869	-81.008	797
-369.273	-81.2113	799
-367.749	-81.2113	799
-367.141	-81.4146	801
-365.613	-81.4146	801
-364.995	-81.6179	803
-363.463	-81.6179	803
-361.931	-81.6179	803
-361.297	-81.8212	805
-359.762	-81.8212	805
-358.671	-81.9228	806
-358.02	-82.1261	808
-356.478	-82.1261	808
-355.816	-82.3294	810
-354.271	-82.3294	810
-353.597	-82.5326	812
-352.048	-82.5326	812
-351.362	-82.7359	814
-349.809	-82.7359	814
-348.257	-82.7359	814
-347.982	-83.0409	817
-346.423	-83.0409	817
-345.709	-83.2441	819
-344.147	-83.2441	819
-344.258	-83.6507	823
-342.688	-83.6507	823
-342.362	-83.9556	826
-340.786	-83.9556	826
-340.032	-84.1589	828
-338.452	-84.1589	828
-337.687	-84.3622	830
-336.103	-84.3622	830
-334.52	-84.3622	830
-333.739	-84.5655	832
-332.152	-84.5655	832
-330.963	-84.6671	833
-329.374	-84.6671	833
-328.965	-84.972	836
-328.154	-85.1753	838
-326.555	-85.1753	838
-326.12	-85.4802	841
-324.516	-85.4802	841
-324.064	-85.7852	844
-322.454	-85.7852	844
-320.844	-85.7852	844
-319.99	-85.9884	846
-318.377	-85.9884	846
-317.512	-86.1917	848
-315.894	-86.1917	848
-315.018	-86.395	850
-313.396	-86.395	850
-312.509	-86.5983	852
-310.883	-86.5983	852
-310.347	-86.9032	855
-308.716	-86.9032	855
-307.085	-86.9032	855
-306.526	-87.2081	858
-305.956	-87.5131	861
-304.313	-87.5131	861
-304.077	-87.9196	865
-302.427	-87.9196	865
-301.473	-88.1229	867
-299.819	-88.1229	867
-299.197	-88.4278	870
-297.537	-88.4278	870
-296.558	-88.6311	872
-294.895	-88.6311	872
-293.231	-88.6311	872
-292.237	-88.8344	874
-290.57	-88.8344	874
-289.894	-89.1393	877
-288.221	-89.1393	877
-287.529	-89.4443	880
-287.149	-89.8508	884
-285.463	-89.8508	884
-284.419	-90.0541	886
-282.729	-90.0541	886
-281.99	-90.359	889
-280.295	-90.359	889
-279.226	-90.5623	891
-277.526	-90.5623	891
-275.826	-90.5623	891
-274.742	-90.7656	893
-273.039	-90.7656	893
-271.943	-90.9689	895
-270.236	-90.9689	895
-269.129	-91.1721	897
-268.014	-91.3754	899
-266.299	-91.3754	899
-265.467	-91.6804	902
-263.747	-91.6804	902
-262.026	-91.6804	902
-261.171	-91.9853	905
-259.445	-91.9853	905
-258.288	-92.1886	907
-256.558	-92.1886	907
-255.671	-92.4935	910
-253.935	-92.4935	910
-252.754	-92.6968	912
-251.014	-92.6968	912
-250.094	-93.0017	915
-248.349	-93.0017	915
-247.682	-93.4083	919
-245.929	-93.4083	919
-245.239	-93.8148	923
-243.478	-93.8148	923
-242.765	-94.2214	927
-240.997	-94.2214	927
-240.519	-94.7296	932
-238.741	-94.7296	932
-237.726	-95.0345	935
-235.942	-95.0345	935
-235.161	-95.4411	939
-233.37	-95.4411	939
-232.318	-95.746	942
-230.521	-95.746	942
-229.696	-96.1526	946
-227.891	-96.1526	946
-226.087	-96.1526	946
-225.231	-96.5591	950
-223.419	-96.5591	950
-222.306	-96.8641	953
-220.951	-97.0673	955
-219.13	-97.0673	955
-217.991	-97.3723	958
-216.163	-97.3723	958
-214.783	-97.5755	960
-212.952	-97.5755	960
-211.781	-97.8805	963
-209.944	-97.8805	963
-208.107	-97.8805	963
-206.913	-98.1854	966
-205.07	-98.1854	966
-204.069	-98.592	970
-202.219	-98.592	970
-200.988	-98.8969	973
-199.132	-98.8969	973
-198.087	-99.3034	977
-196.223	-99.3034	977
-195.155	-99.71	981
-194.072	-100.117	985
-192.193	-100.117	985
-190.315	-100.117	985
-189.201	-100.523	989
-187.314	-100.523	989
-186.178	-100.93	993
-184.284	-100.93	993
-183.124	-101.336	997
-181.223	-101.336	997
-179.86	-101.641	1000
-177.953	-101.641	1000
-176.574	-101.946	1003
-174.66	-101.946	1003
-173.092	-102.149	1005
-171.175	-102.149	1005
-169.258	-102.149	1005
-167.84	-102.454	1008
-165.917	-102.454	1008
-164.483	-102.759	1011
-162.554	-102.759	1011
-161.102	-103.064	1014
-159.168	-103.064	1014
-157.699	-103.369	1017
-156.372	-103.776	1021
-154.424	-103.776	1021
-152.925	-104.081	1024
-150.971	-104.081	1024
-149.018	-104.081	1024
-147.639	-104.487	1028
-145.678	-104.487	1028
-144.277	-104.894	1032
-142.308	-104.894	1032
-140.748	-105.199	1035
-138.773	-105.199	1035
-137.328	-105.605	1039
-135.346	-105.605	1039
-134.006	-106.113	1044
-132.015	-106.113	1044
-130.023	-106.113	1044
-128.645	-106.622	1049
-126.644	-106.622	1049
-125.237	-107.13	1054
-123.227	-107.13	1054
-121.561	-107.435	1057
-119.545	-107.435	1057
-118.085	-107.943	1062
-116.059	-107.943	1062
-114.463	-108.35	1066
-112.429	-108.35	1066
-110.81	-108.756	1070
-108.769	-108.756	1070
-106.728	-108.756	1070
-104.981	-109.061	1073
-102.934	-109.061	1073
-101.169	-109.366	1076
-99.1167	-109.366	1076
-97.5153	-109.874	1081
-95.4533	-109.874	1081
-93.7369	-110.281	1085
-91.6673	-110.281	1085
-90.0931	-110.891	1091
-88.4154	-111.399	1096
-86.3248	-111.399	1096
-84.2342	-111.399	1096
-82.4434	-111.805	1100
-80.3451	-111.805	1100
-78.5314	-112.212	1104
-76.4256	-112.212	1104
-74.5216	-112.517	1107
-72.4101	-112.517	1107
-70.616	-113.025	1112
-68.4949	-113.025	1112
-66.6125	-113.432	1116
-64.4837	-113.432	1116
-62.5785	-113.838	1120
-60.4421	-113.838	1120
-58.3057	-113.838	1120
-56.3699	-114.245	1124
-54.2259	-114.245	1124
-52.2672	-114.651	1128
-50.1156	-114.651	1128
-48.134	-115.058	1132
-45.9747	-115.058	1132
-44.009	-115.566	1137
-41.8402	-115.566	1137
-39.8458	-116.074	1142
-37.6675	-116.074	1142
-35.4891	-116.074	1142
-33.4274	-116.481	1146
-31.2415	-116.481	1146
-29.1822	-116.989	1151
-26.9867	-116.989	1151
-24.8989	-117.497	1156
-22.6938	-117.497	1156
-20.5597	-117.904	1160
-18.347	-117.904	1160
-16.2178	-118.514	1166
-13.9936	-118.514	1166
-11.7897	-118.717	1168
-9.56175	-118.717	1168
-7.3338	-118.717	1168
21.3216	-67.998	669
22.5977	-67.998	669
23.8738	-67.998	669
25.1499	-67.998	669
26.742	-68.8111	677
29.4413	-72.2669	711
