944.658	110.681	1509
947.925	110.681	1509
-349.295	36.6999	486
-348.243	36.6999	486
-347.19	36.6999	486
-344.713	36.5489	484
-343.665	36.5489	484
-342.617	36.5489	484
-341.569	36.5489	484
-337.707	36.2468	480
-336.668	36.2468	480
-335.628	36.2468	480
-333.195	36.0958	478
-332.16	36.0958	478
-333.203	36.3223	481
-332.161	36.3223	481
-333.185	36.5489	484
-332.137	36.5489	484
-331.089	36.5489	484
-330.722	36.6244	485
-329.672	36.6244	485
-330.655	36.851	488
-329.598	36.851	488
-329.214	36.9265	489
-328.156	36.9265	489
-304.354	34.359	455
-303.368	34.359	455
-302.383	34.359	455
-305.372	34.8121	461
-304.374	34.8121	461
-306.666	35.1896	466
-305.657	35.1896	466
-293.534	33.9059	449
-292.562	33.9059	449
-305.228	35.4917	470
-304.21	35.4917	470
-303.192	35.4917	470
-301.531	35.4162	469
-300.516	35.4162	469
-298.223	35.2652	467
-297.212	35.2652	467
-296.201	35.2652	467
-295.189	35.2652	467
-287.879	34.51	457
-286.889	34.51	457
-288.402	34.8121	461
-287.404	34.8121	461
-286.405	34.8121	461
-255.776	31.6405	419
-254.868	31.6405	419
-256.991	32.018	424
-256.073	32.018	424
-256.961	32.2446	427
-256.036	32.2446	427
-257.501	32.5466	431
-256.568	32.5466	431
-258.007	32.8487	435
-257.065	32.8487	435
-259.656	33.3018	441
-258.701	33.3018	441
-260.668	33.6794	446
-259.702	33.6794	446
-258.737	33.6794	446
-260.083	33.9814	450
-259.108	33.9814	450
-260.428	34.2835	454
-259.445	34.2835	454
-260.17	34.51	457
-259.18	34.51	457
-259.886	34.7366	460
-258.89	34.7366	460
-259.015	34.8876	462
-258.014	34.8876	462
-257.57	34.9631	463
-256.568	34.9631	463
-256.117	35.0386	464
-255.112	35.0386	464
-254.108	35.0386	464
-253.103	35.0386	464
-252.641	35.1141	465
-251.634	35.1141	465
-250.627	35.1141	465
-249.621	35.1141	465
-249.148	35.1896	466
-248.139	35.1896	466
-247.13	35.1896	466
-246.121	35.1896	466
-245.638	35.2652	467
-244.627	35.2652	467
-244.137	35.3407	468
-243.124	35.3407	468
-242.11	35.3407	468
-241.097	35.3407	468
-240.083	35.3407	468
-239.07	35.3407	468
-238.057	35.3407	468
-237.043	35.3407	468
-236.03	35.3407	468
-235.016	35.3407	468
-234.003	35.3407	468
-232.989	35.3407	468
-231.976	35.3407	468
-230.963	35.3407	468
-229.949	35.3407	468
-228.936	35.3407	468
-227.922	35.3407	468
-227.394	35.4162	469
-226.378	35.4162	469
-225.363	35.4162	469
-224.347	35.4162	469
-195.236	30.9608	410
-194.349	30.9608	410
-195.82	31.3384	415
-194.921	31.3384	415
-195.893	31.6405	419
-194.986	31.6405	419
-196.394	32.018	424
-195.476	32.018	424
-197.311	32.4711	430
-196.38	32.4711	430
-197.267	32.7732	434
-196.327	32.7732	434
-197.638	33.1508	439
-196.688	33.1508	439
-201.533	34.1324	452
-201.442	34.2835	454
-200.459	34.2835	454
-202.551	34.8121	461
-201.553	34.8121	461
-205.34	35.6427	472
-204.318	35.6427	472
-205.019	35.9448	476
-203.988	35.9448	476
-203.81	36.0958	478
-202.775	36.0958	478
-316.202	58.3725	773
-321.445	59.6563	790
-319.735	59.6563	790
-320.842	60.1849	797
-319.116	60.1849	797
-317.788	60.2604	798
-316.06	60.2604	798
-313.545	60.1093	796
-311.821	60.1093	796
-286.723	55.5785	736
-285.129	55.5785	736
-282.765	55.4275	734
-281.176	55.4275	734
-278.444	55.2009	731
-276.861	55.2009	731
-274.525	55.0499	729
-294.662	59.4297	787
-292.958	59.4297	787
-287.923	58.7501	778
-286.238	58.7501	778
-282.725	58.3725	773
-281.051	58.3725	773
-279.377	58.3725	773
-277.703	58.3725	773
-275.672	58.297	772
-274	58.297	772
-276.562	59.2032	784
-274.864	59.2032	784
-277.347	60.1093	796
-277.355	60.4869	801
-275.62	60.4869	801
-276.279	61.0155	808
-274.53	61.0155	808
-272.105	60.8645	806
-270.36	60.8645	806
-266.948	60.4869	801
-265.213	60.4869	801
-261.176	59.9583	794
-259.457	59.9583	794
-248.973	57.9194	767
-247.312	57.9194	767
-242.128	57.0888	756
-240.491	57.0888	756
-233.483	55.805	739
-225.607	54.2947	719
-224.05	54.2947	719
-219.09	53.4641	708
-217.556	53.4641	708
-214.193	53.011	702
-212.673	53.011	702
-211.152	53.011	702
-209.632	53.011	702
-207.519	52.86	700
-206.003	52.86	700
-208.577	53.9172	714
-207.031	53.9172	714
-202.319	53.0865	703
-200.797	53.0865	703
-197.291	52.5579	696
-196.065	52.6334	697
-194.555	52.6334	697
-193.046	52.6334	697
-191.537	52.6334	697
-191.936	53.162	704
-190.412	53.162	704
-190.229	53.5396	709
-188.693	53.5396	709
-187.422	53.6151	710
-185.885	53.6151	710
-184.866	53.7661	712
-183.325	53.7661	712
-181.783	53.7661	712
-180.241	53.7661	712
-178.95	53.8417	713
-177.406	53.8417	713
-175.616	53.7661	712
-175.541	54.2192	718
-173.986	54.2192	718
-172.912	54.3703	720
-171.352	54.3703	720
-171.444	54.8989	727
-169.87	54.8989	727
-169.453	55.2764	732
-167.868	55.2764	732
-166.51	55.3519	733
-164.923	55.3519	733
-163.113	55.2764	732
-161.528	55.2764	732
-159.943	55.2764	732
-158.357	55.2764	732
-155.701	54.8989	727
-154.127	54.8989	727
-152.553	54.8989	727
-150.979	54.8989	727
-150.226	55.2009	731
-148.644	55.2009	731
-148.268	55.654	737
-146.871	55.7295	738
-145.273	55.7295	738
-144.064	55.8805	740
-142.462	55.8805	740
-141.24	56.0316	742
-139.633	56.0316	742
-138.398	56.1826	744
-136.787	56.1826	744
-135.721	56.4091	747
-134.104	56.4091	747
-133.55	56.8622	753
-131.92	56.8622	753
-130.635	57.0133	755
-129	57.0133	755
-127.028	56.8622	753
-125.397	56.8622	753
-123.438	56.7112	751
-121.812	56.7112	751
-118.745	56.0316	742
-117.139	56.0316	742
-115.999	56.2581	745
-114.386	56.2581	745
-115.043	57.3908	760
-113.397	57.3908	760
-112.193	57.6174	763
-110.541	57.6174	763
-110.744	58.5991	776
-109.063	58.5991	776
-107.383	58.5991	776
-105.702	58.5991	776
-103.888	58.5235	775
-102.21	58.5235	775
-101.05	58.8256	779
-99.3636	58.8256	779
-97.5514	58.7501	778
-95.7434	58.6746	777
-94.0609	58.6746	777
-92.4972	58.7501	778
-90.8125	58.7501	778
-89.2424	58.8256	779
-87.5555	58.8256	779
-85.9789	58.9011	780
-84.2899	58.9011	780
-82.4949	58.8256	779
-80.8081	58.8256	779
-82.5745	61.3931	813
-80.814	61.3931	813
-79.9286	62.0727	822
-78.1487	62.0727	822
-75.5325	61.3931	813
-73.772	61.3931	813
-72.4544	61.7706	818
-70.6831	61.7706	818
-69.0803	61.9217	820
-67.3046	61.9217	820
-64.6499	61.091	809
-62.8981	61.091	809
-61.1463	61.091	809
-59.3944	61.091	809
-56.8588	60.2604	798
-55.1308	60.2604	798
-53.2021	60.0338	795
-51.4805	60.0338	795
-49.8216	60.1093	796
-48.0979	60.1093	796
-46.549	60.3359	799
-44.8189	60.3359	799
-43.4123	60.789	805
-41.6691	60.789	805
-40.0251	60.94	807
-38.2776	60.94	807
-36.5301	60.94	807
-34.7826	60.94	807
-33.2398	61.3176	812
-31.4815	61.3176	812
-29.9062	61.6951	817
-28.137	61.6951	817
-26.4324	61.8462	819
-24.6589	61.8462	819
-22.9693	62.0727	822
-21.1893	62.0727	822
-19.5274	62.4503	827
-17.7366	62.4503	827
-16.5628	64.8667	859
-14.7027	64.8667	859
-13.022	65.7729	871
-11.1359	65.7729	871
-9.37723	66.6791	883
-7.46516	66.6791	883
-5.57825	66.9811	887
-3.65751	66.9811	887
-1.73678	66.9811	887
0.183955	66.9811	887
2.1474	68.3404	905
4.10711	68.3404	905
6.22771	70.1527	929
8.23939	70.1527	929
10.3062	70.5303	934
12.3288	70.5303	934
14.3359	70.4548	933
16.3562	70.4548	933
18.1402	69.5486	921
20.1346	69.5486	921
21.5763	67.8118	898
23.5209	67.8118	898
25.4087	67.6608	896
27.3489	67.6608	896
29.2565	67.5853	895
31.1945	67.5853	895
33.1326	67.5853	895
35.0706	67.5853	895
36.7192	67.0566	888
38.6421	67.0566	888
40.3823	66.7546	884
42.2965	66.7546	884
44.3108	66.9056	886
46.2294	66.9056	886
48.0936	66.8301	885
50.01	66.8301	885
51.9851	66.9056	886
53.9036	66.9056	886
55.8852	66.9811	887
57.806	66.9811	887
59.4573	66.6791	883
61.3694	66.6791	883
63.9981	67.4342	893
65.9319	67.4342	893
67.4856	67.0566	888
69.4085	67.0566	888
69.8855	65.6974	870
71.7694	65.6974	870
73.6534	65.6974	870
75.5373	65.6974	870
77.8661	66.075	875
79.7609	66.075	875
82.9621	67.1322	889
84.8872	67.1322	889
86.7146	67.0566	888
88.6375	67.0566	888
92.6001	68.5669	908
94.5663	68.5669	908
98.3398	69.8507	925
100.343	69.8507	925
102.899	70.2282	930
104.913	70.2282	930
107.157	70.3793	932
109.175	70.3793	932
111.074	70.3038	931
113.09	70.3038	931
113.993	69.6241	922
115.99	69.6241	922
118.114	69.6996	923
120.113	69.6996	923
120.524	68.7935	911
122.497	68.7935	911
119.141	65.8484	872
698.468	121.729	1612
701.958	121.729	1612
702.823	121.276	1606
706.301	121.276	1606
707.127	120.823	1600
710.592	120.823	1600
713.164	120.672	1598
716.624	120.672	1598
721.887	120.974	1602
727.62	121.351	1607
731.1	121.351	1607
735.037	121.427	1608
738.519	121.427	1608
742.001	121.427	1608
745.483	121.427	1608
747.102	121.125	1604
750.575	121.125	1604
752.638	120.898	1601
756.105	120.898	1601
756.251	120.37	1594
759.702	120.37	1594
760.76	119.992	1589
764.201	119.992	1589
765.71	119.69	1585
769.142	119.69	1585
772.574	119.69	1585
776.006	119.69	1585
780.914	119.917	1588
784.352	119.917	1588
789.775	120.219	1592
793.223	120.219	1592
796.17	120.143	1591
799.615	120.143	1591
802.051	119.992	1589
805.491	119.992	1589
807.914	119.841	1587
811.351	119.841	1587
813.76	119.69	1585
817.193	119.69	1585
821.142	119.766	1586
824.577	119.766	1586
828.533	119.841	1587
831.97	119.841	1587
835.933	119.917	1588
839.371	119.917	1588
842.81	119.917	1588
846.249	119.917	1588
848.082	119.69	1585
851.515	119.69	1585
851.71	119.237	1579
855.13	119.237	1579
854.743	118.708	1572
858.147	118.708	1572
857.714	118.18	1565
861.103	118.18	1565
862.835	117.953	1562
866.217	117.953	1562
867.93	117.727	1559
871.305	117.727	1559
883.181	115.31	1527
886.487	115.31	1527
890.376	115.386	1528
893.685	115.386	1528
897.581	115.461	1529
900.892	115.461	1529
904.203	115.461	1529
907.514	115.461	1529
910.825	115.461	1529
914.136	115.461	1529
917.447	115.461	1529
919.553	115.31	1527
922.86	115.31	1527
924.347	115.084	1524
927.647	115.084	1524
928.504	114.782	1520
931.795	114.782	1520
932.011	114.404	1515
935.291	114.404	1515
936.713	114.178	1512
939.987	114.178	1512
943.262	114.178	1512
944.658	113.951	1509
947.925	113.951	1509
-349.295	37.753	486
-346.81	37.5976	484
-332.903	36.1994	466
-331.894	36.1994	466
-330.884	36.1994	466
-335.538	36.8208	474
-334.512	36.8208	474
-331.375	36.5878	471
-330.355	36.5878	471
-329.335	36.5878	471
-332.498	37.0539	477
-331.465	37.0539	477
-332.51	37.2869	480
-331.471	37.2869	480
-333.185	37.5976	484
-332.137	37.5976	484
-331.089	37.5976	484
-298.673	34.0243	438
-297.725	34.0243	438
-302.874	34.7234	447
-301.906	34.7234	447
-307.671	35.5002	457
-306.681	35.5002	457
-304.354	35.3449	455
-303.368	35.3449	455
-302.383	35.3449	455
-299.411	35.1118	452
-298.432	35.1118	452
-294.821	34.8011	448
-293.851	34.8011	448
-293.534	34.8788	449
-292.562	34.8788	449
-292.239	34.9565	450
-291.265	34.9565	450
-290.29	34.9565	450
-289.959	35.0341	451
-288.982	35.0341	451
-288.644	35.1118	452
-287.665	35.1118	452
-287.321	35.1895	453
-286.34	35.1895	453
-280.95	34.6457	446
-279.984	34.6457	446
-255.245	31.6939	408
-254.362	31.6939	408
-253.478	31.6939	408
-254.452	31.9269	411
-253.562	31.9269	411
-255.131	32.2376	415
-254.232	32.2376	415
-255.776	32.5484	419
-254.868	32.5484	419
-255.779	32.7814	422
-254.865	32.7814	422
-256.961	33.1698	427
-256.036	33.1698	427
-257.501	33.4805	431
-256.568	33.4805	431
-258.007	33.7912	435
-257.065	33.7912	435
-258.478	34.102	439
-257.528	34.102	439
-259.499	34.4904	444
-258.538	34.4904	444
-257.576	34.4904	444
-259.505	34.8788	449
-258.532	34.8788	449
-259.855	35.1895	453
-258.874	35.1895	453
-260.17	35.5002	457
-259.18	35.5002	457
-259.886	35.7333	460
-258.89	35.7333	460
-259.015	35.8886	462
-258.014	35.8886	462
-257.57	35.9663	463
-256.568	35.9663	463
-256.117	36.044	464
-255.112	36.044	464
-254.655	36.1217	465
-253.648	36.1217	465
-252.641	36.1217	465
-251.634	36.1217	465
-250.627	36.1217	465
-249.621	36.1217	465
-249.148	36.1994	466
-248.139	36.1994	466
-247.66	36.277	467
-246.649	36.277	467
-245.638	36.277	467
-244.627	36.277	467
-244.137	36.3547	468
-243.124	36.3547	468
-242.628	36.4324	469
-241.612	36.4324	469
-240.596	36.4324	469
-239.581	36.4324	469
-238.057	36.3547	468
-237.043	36.3547	468
-236.03	36.3547	468
-235.016	36.3547	468
-234.003	36.3547	468
-232.989	36.3547	468
-231.976	36.3547	468
-230.963	36.3547	468
-229.949	36.3547	468
-228.936	36.3547	468
-227.922	36.3547	468
-227.394	36.4324	469
-226.378	36.4324	469
-225.363	36.4324	469
-224.347	36.4324	469
-195.236	31.8492	410
-194.349	31.8492	410
-195.82	32.2376	415
-194.921	32.2376	415
-195.893	32.5484	419
-194.986	32.5484	419
-196.394	32.9368	424
-195.476	32.9368	424
-197.311	33.4028	430
-196.38	33.4028	430
-197.267	33.7136	434
-196.327	33.7136	434
-196.288	33.8689	436
-195.344	33.8689	436
-197.521	34.4127	443
-200.555	35.1118	452
-199.576	35.1118	452
-202.112	35.7333	460
-201.116	35.7333	460
-204.905	36.5878	471
-203.885	36.5878	471
-205.019	36.9762	476
-203.988	36.9762	476
-203.81	37.1315	478
-202.775	37.1315	478
-309.657	58.8045	757
-315.749	60.2805	776
-314.068	60.2805	776
-312.791	60.3582	777
-311.108	60.3582	777
-297.877	58.1054	748
-296.257	58.1054	748
-291.092	57.4063	739
-289.492	57.4063	739
-286.723	57.1732	736
-285.129	57.1732	736
-281.995	56.8625	732
-280.41	56.8625	732
-278.063	56.7072	730
-276.482	56.7072	730
-274.525	56.6295	729
-271.823	56.3964	726
-270.251	56.3964	726
-273.49	57.4063	739
-271.889	57.4063	739
-278.701	59.1929	762
-277.051	59.1929	762
-276.124	59.3483	764
-274.47	59.3483	764
-274.244	59.659	768
-272.581	59.659	768
-274.092	60.3582	777
-272.41	60.3582	777
-274.56	61.2127	788
-274.931	61.6787	794
-273.212	61.6787	794
-273.202	62.0671	799
-271.472	62.0671	799
-269.404	61.9895	798
-267.676	61.9895	798
-266.281	62.0671	799
-264.551	62.0671	799
-258.874	61.135	787
-257.17	61.135	787
-244.104	58.4161	752
-242.476	58.4161	752
-238.926	57.9501	746
-237.31	57.9501	746
-226.532	55.6973	717
-222.47	55.0759	709
-220.934	55.0759	709
-218.161	54.7651	705
-216.635	54.7651	705
-213.582	54.3767	700
-212.067	54.3767	700
-209.949	54.2214	698
-208.438	54.2214	698
-205.74	53.9106	694
-204.238	53.9106	694
-201.859	53.6776	691
-200.362	53.6776	691
-198.578	53.5999	690
-197.084	53.5999	690
-195.59	53.5999	690
-194.377	53.6776	691
-192.881	53.6776	691
-191.938	53.833	693
-190.438	53.833	693
-191.118	54.4544	701
-189.6	54.4544	701
-188.082	54.4544	701
-186.564	54.4544	701
-185.574	54.6098	703
-184.052	54.6098	703
-182.789	54.6874	704
-181.265	54.6874	704
-178.974	54.4544	701
-177.456	54.4544	701
-176.942	54.7651	705
-175.416	54.7651	705
-174.136	54.8428	706
-173.096	54.9982	708
-171.563	54.9982	708
-170.03	54.9982	708
-168.497	54.9982	708
-166.728	54.9205	707
-165.197	54.9205	707
-165.518	55.5419	715
-163.969	55.5419	715
-164.466	56.2411	724
-162.898	56.2411	724
-161.107	56.1634	723
-159.542	56.1634	723
-157.976	56.1634	723
-156.41	56.1634	723
-154.416	56.008	721
-152.855	56.008	721
-151.294	56.008	721
-149.733	56.008	721
-149.404	56.4741	727
-147.83	56.4741	727
-144.848	55.9303	720
-143.289	55.9303	720
-141.533	55.8527	719
-142.506	56.8625	732
-140.921	56.8625	732
-139.527	56.9402	733
-137.939	56.9402	733
-135.794	56.7072	730
-134.213	56.7072	730
-130.997	56.008	721
-129.436	56.008	721
-133.55	58.4938	753
-131.92	58.4938	753
-130.635	58.6492	755
-129	58.6492	755
-127.028	58.4938	753
-125.397	58.4938	753
-123.438	58.3385	751
-121.812	58.3385	751
-118.745	57.6393	742
-117.139	57.6393	742
-115.999	57.8724	745
-114.386	57.8724	745
-115.043	59.0376	760
-113.397	59.0376	760
-112.193	59.2706	763
-110.541	59.2706	763
-110.744	60.2805	776
-109.063	60.2805	776
-107.383	60.2805	776
-105.702	60.2805	776
-103.888	60.2028	775
-102.21	60.2028	775
-101.05	60.5135	779
-99.3636	60.5135	779
-97.5514	60.4358	778
-95.7434	60.3582	777
-94.0609	60.3582	777
-92.4972	60.4358	778
-90.8125	60.4358	778
-89.2424	60.5135	779
-87.5555	60.5135	779
-85.9789	60.5912	780
-84.2899	60.5912	780
-82.4949	60.5135	779
-80.8081	60.5135	779
-82.5745	63.1547	813
-80.814	63.1547	813
-79.9286	63.8538	822
-78.1487	63.8538	822
-75.5325	63.1547	813
-73.772	63.1547	813
-72.4544	63.5431	818
-70.6831	63.5431	818
-69.0803	63.6984	820
-67.3046	63.6984	820
-64.6499	62.844	809
-62.8981	62.844	809
-61.1463	62.844	809
-59.3944	62.844	809
-56.8588	61.9895	798
-55.1308	61.9895	798
-53.2021	61.7564	795
-51.4805	61.7564	795
-49.8216	61.8341	796
-48.0979	61.8341	796
-46.549	62.0671	799
-44.8189	62.0671	799
-43.4123	62.5332	805
-41.6691	62.5332	805
-40.0251	62.6886	807
-38.2776	62.6886	807
-36.5301	62.6886	807
-34.7826	62.6886	807
-33.2398	63.077	812
-31.4815	63.077	812
-29.9062	63.4654	817
-28.137	63.4654	817
-26.4324	63.6208	819
-24.6589	63.6208	819
-22.9693	63.8538	822
-21.1893	63.8538	822
-19.5274	64.2422	827
-17.7366	64.2422	827
-16.5628	66.728	859
-14.7027	66.728	859
-13.022	67.6602	871
-11.1359	67.6602	871
-9.37723	68.5924	883
-7.46516	68.5924	883
-5.57825	68.9031	887
-3.65751	68.9031	887
-1.73678	68.9031	887
0.183955	68.9031	887
2.1474	70.3013	905
4.10711	70.3013	905
6.22771	72.1657	929
8.23939	72.1657	929
10.3062	72.5541	934
12.3288	72.5541	934
14.3359	72.4764	933
16.3562	72.4764	933
18.1402	71.5442	921
20.1346	71.5442	921
21.5763	69.7576	898
23.5209	69.7576	898
25.4087	69.6022	896
27.3489	69.6022	896
29.2565	69.5245	895
31.1945	69.5245	895
33.1326	69.5245	895
35.0706	69.5245	895
36.7192	68.9808	888
38.6421	68.9808	888
40.3823	68.67	884
42.2965	68.67	884
44.3108	68.8254	886
46.2294	68.8254	886
48.0936	68.7477	885
50.01	68.7477	885
51.9851	68.8254	886
53.9036	68.8254	886
55.8852	68.9031	887
57.806	68.9031	887
59.4573	68.5924	883
61.3694	68.5924	883
63.9981	69.3692	893
65.9319	69.3692	893
67.4856	68.9808	888
69.4085	68.9808	888
69.8855	67.5825	870
71.7694	67.5825	870
73.6534	67.5825	870
75.5373	67.5825	870
77.8661	67.9709	875
79.7609	67.9709	875
82.9621	69.0584	889
84.8872	69.0584	889
86.7146	68.9808	888
88.6375	68.9808	888
92.6001	70.5344	908
94.5663	70.5344	908
98.3398	71.855	925
100.343	71.855	925
102.899	72.2434	930
104.913	72.2434	930
107.157	72.3987	932
109.175	72.3987	932
111.074	72.321	931
113.09	72.321	931
113.993	71.6219	922
115.99	71.6219	922
118.114	71.6996	923
120.113	71.6996	923
120.524	70.7674	911
122.497	70.7674	911
119.141	67.7379	872
693.202	125.533	1616
696.702	125.533	1616
698.468	125.222	1612
701.958	125.222	1612
704.136	124.989	1609
707.62	124.989	1609
708.895	124.6	1604
712.368	124.6	1604
714.949	124.445	1602
718.418	124.445	1602
722.338	124.523	1603
727.167	124.756	1606
730.645	124.756	1606
734.58	124.833	1607
738.059	124.833	1607
741.539	124.833	1607
745.019	124.833	1607
747.102	124.6	1604
750.575	124.6	1604
752.168	124.29	1600
755.633	124.29	1600
756.251	123.824	1594
759.702	123.824	1594
760.76	123.435	1589
764.201	123.435	1589
766.193	123.202	1586
769.627	123.202	1586
773.061	123.202	1586
776.496	123.202	1586
781.405	123.435	1589
784.846	123.435	1589
789.279	123.591	1591
792.724	123.591	1591
795.169	123.435	1589
798.61	123.435	1589
799.527	123.047	1584
802.957	123.047	1584
804.86	122.814	1581
808.283	122.814	1581
810.68	122.658	1579
814.099	122.658	1579
818.554	122.814	1581
821.977	122.814	1581
826.445	122.969	1583
829.873	122.969	1583
833.827	123.047	1584
837.257	123.047	1584
840.687	123.047	1584
844.117	123.047	1584
846.477	122.891	1582
849.903	122.891	1582
850.632	122.503	1577
854.046	122.503	1577
854.199	122.037	1571
857.601	122.037	1571
857.714	121.571	1565
861.103	121.571	1565
862.835	121.338	1562
866.217	121.338	1562
869.6	121.338	1562
872.982	121.338	1562
888.229	118.852	1530
891.542	118.852	1530
894.855	118.852	1530
899.342	119.007	1532
902.66	119.007	1532
905.977	119.007	1532
909.294	119.007	1532
912.612	119.007	1532
914.734	118.852	1530
918.047	118.852	1530
918.951	118.541	1526
922.255	118.541	1526
922.527	118.153	1521
925.821	118.153	1521
926.671	117.842	1517
929.956	117.842	1517
930.165	117.454	1512
933.439	117.454	1512
934.855	117.221	1509
938.122	117.221	1509
941.39	117.221	1509
943.406	117.065	1507
946.669	117.065	1507
-344.169	38.0076	476
-343.139	38.0076	476
-347.858	38.6463	484
-346.81	38.6463	484
-332.903	37.2091	466
-331.894	37.2091	466
-330.884	37.2091	466
-335.538	37.8479	474
-334.512	37.8479	474
-331.375	37.6083	471
-330.355	37.6083	471
-329.335	37.6083	471
-332.498	38.0874	477
-331.465	38.0874	477
-332.51	38.327	480
-331.471	38.327	480
-333.185	38.6463	484
-332.137	38.6463	484
-331.089	38.6463	484
-298.673	34.9733	438
-297.725	34.9733	438
-302.874	35.692	447
-301.906	35.692	447
-307.671	36.4905	457
-306.681	36.4905	457
-304.354	36.3308	455
-303.368	36.3308	455
-302.383	36.3308	455
-299.411	36.0912	452
-298.432	36.0912	452
-294.821	35.7718	448
-293.851	35.7718	448
-293.534	35.8517	449
-292.562	35.8517	449
-292.239	35.9315	450
-291.265	35.9315	450
-290.29	35.9315	450
-289.959	36.0114	451
-288.982	36.0114	451
-288.644	36.0912	452
-287.665	36.0912	452
-287.321	36.1711	453
-286.34	36.1711	453
-280.95	35.6121	446
-279.984	35.6121	446
-255.245	32.5779	408
-254.362	32.5779	408
-253.478	32.5779	408
-254.452	32.8175	411
-253.562	32.8175	411
-255.131	33.1368	415
-254.232	33.1368	415
-255.776	33.4562	419
-254.868	33.4562	419
-255.779	33.6958	422
-254.865	33.6958	422
-256.961	34.095	427
-256.036	34.095	427
-257.501	34.4144	431
-256.568	34.4144	431
-258.007	34.7338	435
-257.065	34.7338	435
-258.478	35.0532	439
-257.528	35.0532	439
-259.499	35.4524	444
-258.538	35.4524	444
-257.576	35.4524	444
-259.505	35.8517	449
-258.532	35.8517	449
-259.855	36.1711	453
-258.874	36.1711	453
-260.17	36.4905	457
-259.18	36.4905	457
-259.886	36.73	460
-258.89	36.73	460
-259.015	36.8897	462
-258.014	36.8897	462
-257.57	36.9695	463
-256.568	36.9695	463
-256.117	37.0494	464
-255.112	37.0494	464
-254.655	37.1292	465
-253.648	37.1292	465
-252.641	37.1292	465
-251.634	37.1292	465
-250.627	37.1292	465
-249.621	37.1292	465
-249.148	37.2091	466
-248.139	37.2091	466
-247.66	37.2889	467
-246.649	37.2889	467
-246.164	37.3688	468
-245.15	37.3688	468
-244.137	37.3688	468
-243.124	37.3688	468
-242.628	37.4486	469
-241.612	37.4486	469
-240.596	37.4486	469
-239.581	37.4486	469
-238.057	37.3688	468
-237.043	37.3688	468
-236.03	37.3688	468
-235.016	37.3688	468
-234.003	37.3688	468
-232.989	37.3688	468
-231.976	37.3688	468
-230.963	37.3688	468
-229.949	37.3688	468
-228.936	37.3688	468
-227.922	37.3688	468
-197.818	32.5779	408
-196.935	32.5779	408
-196.051	32.5779	408
-195.168	32.5779	408
-195.236	32.7376	410
-194.349	32.7376	410
-194.404	32.8973	412
-193.512	32.8973	412
-195.425	33.3764	418
-194.52	33.3764	418
-195.468	33.6958	422
-194.554	33.6958	422
-195.935	34.095	427
-195.01	34.095	427
-196.358	34.4943	432
-195.422	34.4943	432
-195.838	34.7338	435
-194.896	34.7338	435
-197.521	35.3726	443
-200.111	36.0114	451
-199.134	36.0114	451
-202.112	36.73	460
-201.116	36.73	460
-202.73	37.2091	466
-201.721	37.2091	466
-204.588	37.9277	475
-203.56	37.9277	475
-203.81	38.1673	478
-202.775	38.1673	478
-309.657	60.4448	757
-315.749	61.9619	776
-314.068	61.9619	776
-312.791	62.0418	777
-311.108	62.0418	777
-297.877	59.7262	748
-296.257	59.7262	748
-291.092	59.0075	739
-289.492	59.0075	739
-286.723	58.768	736
-285.129	58.768	736
-281.995	58.4486	732
-280.41	58.4486	732
-278.063	58.2889	730
-276.482	58.2889	730
-274.525	58.2091	729
-271.823	57.9695	726
-270.251	57.9695	726
-273.49	59.0075	739
-271.889	59.0075	739
-278.701	60.844	762
-277.051	60.844	762
-276.124	61.0037	764
-274.47	61.0037	764
-274.244	61.3231	768
-272.581	61.3231	768
-274.092	62.0418	777
-272.41	62.0418	777
-274.56	62.9201	788
-274.931	63.3992	794
-273.212	63.3992	794
-273.202	63.7984	799
-271.472	63.7984	799
-269.404	63.7186	798
-267.676	63.7186	798
-266.281	63.7984	799
-264.551	63.7984	799
-258.874	62.8402	787
-257.17	62.8402	787
-244.104	60.0456	752
-242.476	60.0456	752
-238.926	59.5665	746
-237.31	59.5665	746
-226.532	57.2509	717
-222.47	56.6121	709
-220.934	56.6121	709
-218.161	56.2927	705
-216.635	56.2927	705
-213.582	55.8935	700
-212.067	55.8935	700
-209.949	55.7338	698
-208.438	55.7338	698
-205.74	55.4144	694
-204.238	55.4144	694
-201.859	55.1748	691
-200.362	55.1748	691
-198.578	55.095	690
-197.084	55.095	690
-195.59	55.095	690
-194.377	55.1748	691
-192.881	55.1748	691
-191.938	55.3345	693
-190.438	55.3345	693
-191.118	55.9733	701
-189.6	55.9733	701
-188.082	55.9733	701
-186.564	55.9733	701
-185.574	56.133	703
-184.052	56.133	703
-182.789	56.2129	704
-181.265	56.2129	704
-178.974	55.9733	701
-177.456	55.9733	701
-176.942	56.2927	705
-175.416	56.2927	705
-174.136	56.3726	706
-173.096	56.5323	708
-171.563	56.5323	708
-170.03	56.5323	708
-168.497	56.5323	708
-166.728	56.4524	707
-165.197	56.4524	707
-165.518	57.0912	715
-163.969	57.0912	715
-164.466	57.8098	724
-162.898	57.8098	724
-161.107	57.73	723
-159.542	57.73	723
-157.976	57.73	723
-156.41	57.73	723
-154.416	57.5703	721
-152.855	57.5703	721
-151.294	57.5703	721
-149.733	57.5703	721
-149.404	58.0494	727
-147.83	58.0494	727
-144.848	57.4904	720
-143.289	57.4904	720
-141.533	57.4106	719
-142.506	58.4486	732
-140.921	58.4486	732
-139.527	58.5285	733
-137.939	58.5285	733
-135.794	58.2889	730
-134.213	58.2889	730
-130.997	57.5703	721
-129.436	57.5703	721
-128.584	57.8897	725
-127.014	57.8897	725
-128.386	59.2471	742
-126.779	59.2471	742
-125.004	59.1672	741
-123.399	59.1672	741
-119.165	57.8897	725
-117.595	57.8897	725
-116.345	58.0494	727
-114.771	58.0494	727
-113.041	57.9695	726
-111.469	57.9695	726
-110.351	58.2091	729
-108.772	58.2091	729
-109.987	59.7262	748
-108.367	59.7262	748
-109.459	61.2433	767
-107.798	61.2433	767
-106.414	61.403	769
-104.749	61.403	769
-102.95	61.3231	768
-101.287	61.3231	768
-99.883	61.4828	770
-98.2156	61.4828	770
-96.9244	61.7224	773
-95.497	61.8821	775
-93.8188	61.8821	775
-92.2595	61.9619	776
-90.5791	61.9619	776
-89.0133	62.0418	777
-87.3307	62.0418	777
-85.3175	61.8022	774
-83.6415	61.8022	774
-81.8595	61.7224	773
-80.1857	61.7224	773
-78.1055	61.403	769
-76.4403	61.403	769
-74.6779	61.3231	768
-73.0148	61.3231	768
-71.166	61.1634	766
-69.5072	61.1634	766
-68.4686	61.7224	773
-66.7947	61.7224	773
-67.5639	64.038	802
-65.8272	64.038	802
-63.9307	63.8783	800
-62.1984	63.8783	800
-60.2393	63.6387	797
-58.5134	63.6387	797
-55.5763	62.2813	780
-53.8873	62.2813	780
-52.5998	62.7604	786
-50.8977	62.7604	786
-49.0705	62.6007	784
-47.3728	62.6007	784
-45.4421	62.2813	780
-43.7531	62.2813	780
-42.9269	63.5589	796
-41.2032	63.5589	796
-39.6283	63.7984	799
-37.8982	63.7984	799
-35.3985	62.441	782
-33.7051	62.441	782
-32.9532	64.2775	805
-31.2101	64.2775	805
-29.1741	63.6387	797
-27.4482	63.6387	797
-26.3033	65.076	815
-24.5385	65.076	815
-22.9693	65.6349	822
-21.1893	65.6349	822
-19.3385	65.3954	819
-17.565	65.3954	819
-15.8686	65.7148	823
-14.0865	65.7148	823
-12.6632	67.6311	847
-10.829	67.6311	847
-9.17546	68.9885	864
-7.30453	68.9885	864
-5.47762	69.5475	871
-3.59154	69.5475	871
-1.70937	69.7072	873
0.181051	69.7072	873
2.07384	69.787	874
3.96642	69.787	874
5.8523	69.7072	873
7.74272	69.7072	873
9.80969	70.9847	889
11.7348	70.9847	889
13.5676	70.5056	883
15.4797	70.5056	883
17.3918	70.5056	883
19.3038	70.5056	883
21.3841	71.0646	890
23.3113	71.0646	890
25.2386	71.0646	890
27.1658	71.0646	890
29.0603	70.9847	889
30.9854	70.9847	889
32.2811	69.6273	872
34.1694	69.6273	872
35.5614	68.6691	860
37.4237	68.6691	860
39.7885	69.5475	871
41.6745	69.5475	871
43.5606	69.5475	871
45.4467	69.5475	871
47.1154	69.2281	867
48.9929	69.2281	867
50.9289	69.3079	868
52.8085	69.3079	868
54.6881	69.3079	868
56.5677	69.3079	868
57.5046	68.19	854
59.3539	68.19	854
61.0598	68.0303	852
62.9048	68.0303	852
65.0537	68.3497	856
66.9073	68.3497	856
68.9216	68.5094	858
70.7795	68.5094	858
72.8914	68.749	861
74.7559	68.749	861
76.7093	68.8288	862
78.5759	68.8288	862
80.5358	68.9087	863
82.4045	68.9087	863
85.0545	69.5475	871
86.9406	69.5475	871
88.9287	69.6273	872
90.8169	69.6273	872
92.9178	69.787	874
94.8104	69.787	874
97.4775	70.3459	881
99.3852	70.3459	881
103.363	71.7832	899
105.309	71.7832	899
109.046	72.9809	914
111.025	72.9809	914
113.993	73.6197	922
115.99	73.6197	922
115.811	72.2623	905
117.77	72.2623	905
116.423	70.2661	880
118.328	70.2661	880
118.458	69.2281	867
113.395	65.2357	817
115.164	65.2357	817
110.636	61.7224	773
112.31	61.7224	773
693.202	129.034	1616
696.702	129.034	1616
698.468	128.715	1612
701.958	128.715	1612
704.136	128.475	1609
707.62	128.475	1609
708.895	128.076	1604
712.368	128.076	1604
714.949	127.916	1602
718.418	127.916	1602
722.338	127.996	1603
727.167	128.236	1606
730.645	128.236	1606
734.58	128.315	1607
738.059	128.315	1607
741.539	128.315	1607
745.019	128.315	1607
747.102	128.076	1604
750.575	128.076	1604
752.168	127.757	1600
755.633	127.757	1600
756.251	127.277	1594
759.702	127.277	1594
760.76	126.878	1589
764.201	126.878	1589
766.193	126.639	1586
769.627	126.639	1586
773.061	126.639	1586
776.496	126.639	1586
781.405	126.878	1589
784.846	126.878	1589
789.279	127.038	1591
792.724	127.038	1591
795.169	126.878	1589
798.61	126.878	1589
799.527	126.479	1584
802.957	126.479	1584
804.86	126.239	1581
808.283	126.239	1581
810.68	126.08	1579
814.099	126.08	1579
818.554	126.239	1581
821.977	126.239	1581
826.445	126.399	1583
829.873	126.399	1583
833.827	126.479	1584
837.257	126.479	1584
840.687	126.479	1584
844.117	126.479	1584
846.477	126.319	1582
849.903	126.319	1582
850.632	125.92	1577
854.046	125.92	1577
854.199	125.441	1571
857.601	125.441	1571
857.714	124.962	1565
861.103	124.962	1565
862.835	124.722	1562
866.217	124.722	1562
869.6	124.722	1562
891.542	122.167	1530
894.855	122.167	1530
899.342	122.327	1532
902.66	122.327	1532
905.977	122.327	1532
909.294	122.327	1532
912.612	122.327	1532
914.734	122.167	1530
918.047	122.167	1530
918.951	121.848	1526
922.255	121.848	1526
922.527	121.449	1521
925.821	121.449	1521
926.671	121.129	1517
929.956	121.129	1517
930.165	120.73	1512
933.439	120.73	1512
934.855	120.49	1509
938.122	120.49	1509
941.39	120.49	1509
943.406	120.331	1507
946.669	120.331	1507
-344.169	39.039	476
-343.139	39.039	476
-336.358	38.3828	468
-335.345	38.3828	468
-332.903	38.2188	466
-331.894	38.2188	466
-330.884	38.2188	466
-331.291	38.3828	468
-330.278	38.3828	468
-329.264	38.3828	468
-328.251	38.3828	468
-327.237	38.3828	468
-328.315	38.6289	471
-327.295	38.6289	471
-324.197	38.3828	468
-323.184	38.3828	468
-299.453	35.6764	435
-298.511	35.6764	435
-297.569	35.6764	435
-298.673	35.9224	438
-297.725	35.9224	438
-302.874	36.6605	447
-301.906	36.6605	447
-299.592	36.4965	445
-298.628	36.4965	445
-299.003	36.6605	447
-298.035	36.6605	447
-297.067	36.6605	447
-294.774	36.4965	445
-293.81	36.4965	445
-292.189	36.4145	444
-291.227	36.4145	444
-282.421	35.4303	432
-281.485	35.4303	432
-279.9	35.3483	431
-278.967	35.3483	431
-278.034	35.3483	431
-275.815	35.1843	429
-274.886	35.1843	429
-276.511	35.5123	433
-275.573	35.5123	433
-256.242	33.1339	404
-255.367	33.1339	404
-255.752	33.2979	406
-254.873	33.2979	406
-255.245	33.462	408
-254.362	33.462	408
-253.478	33.462	408
-254.452	33.708	411
-253.562	33.708	411
-254.516	33.9541	414
-253.62	33.9541	414
-255.776	34.3641	419
-254.868	34.3641	419
-255.779	34.6102	422
-254.865	34.6102	422
-256.359	34.9382	426
-255.436	34.9382	426
-256.904	35.2663	430
-255.973	35.2663	430
-257.414	35.5943	434
-256.474	35.5943	434
-258.478	36.0044	439
-257.528	36.0044	439
-258.915	36.3325	443
-257.956	36.3325	443
-256.996	36.3325	443
-258.927	36.7425	448
-257.957	36.7425	448
-259.281	37.0706	452
-258.302	37.0706	452
-259.601	37.3987	456
-258.613	37.3987	456
-259.321	37.6447	459
-258.327	37.6447	459
-259.015	37.8908	462
-258.014	37.8908	462
-257.57	37.9728	463
-256.568	37.9728	463
-256.117	38.0548	464
-255.112	38.0548	464
-254.655	38.1368	465
-253.648	38.1368	465
-252.641	38.1368	465
-251.634	38.1368	465
-250.627	38.1368	465
-249.621	38.1368	465
-249.148	38.2188	466
-248.139	38.2188	466
-247.66	38.3008	467
-246.649	38.3008	467
-246.164	38.3828	468
-245.15	38.3828	468
-244.137	38.3828	468
-243.124	38.3828	468
-242.628	38.4649	469
-241.612	38.4649	469
-240.596	38.4649	469
-239.581	38.4649	469
-238.057	38.3828	468
-237.043	38.3828	468
-236.03	38.3828	468
-235.016	38.3828	468
-234.003	38.3828	468
-232.989	38.3828	468
-231.976	38.3828	468
-230.963	38.3828	468
-229.949	38.3828	468
-228.936	38.3828	468
-227.922	38.3828	468
-197.818	33.462	408
-196.935	33.462	408
-196.051	33.462	408
-195.168	33.462	408
-195.236	33.626	410
-194.349	33.626	410
-194.404	33.79	412
-193.512	33.79	412
-195.425	34.2821	418
-194.52	34.2821	418
-195.468	34.6102	422
-194.554	34.6102	422
-195.935	35.0202	427
-195.01	35.0202	427
-196.358	35.4303	432
-195.422	35.4303	432
-195.838	35.6764	435
-194.896	35.6764	435
-197.521	36.3325	443
-200.111	36.9886	451
-199.134	36.9886	451
-202.112	37.7267	460
-201.116	37.7267	460
-202.73	38.2188	466
-201.721	38.2188	466
-204.588	38.9569	475
-203.56	38.9569	475
-203.81	39.203	478
-202.775	39.203	478
-304.748	61.1009	745
-306.797	61.839	754
-305.164	61.839	754
-299.506	61.0189	744
-297.895	61.0189	744
-295.089	60.7728	741
-293.485	60.7728	741
-290.698	60.5268	738
-289.1	60.5268	738
-285.554	60.1167	733
-283.967	60.1167	733
-281.609	59.9527	731
-280.026	59.9527	731
-277.301	59.7066	728
-275.724	59.7066	728
-271.888	59.2146	722
-269.576	59.0505	720
-268.017	59.0505	720
-265.718	58.8865	718
-264.163	58.8865	718
-266.632	59.7887	729
-265.053	59.7887	729
-268.173	60.8548	742
-266.566	60.8548	742
-271.387	62.3311	760
-269.741	62.3311	760
-268.448	62.4131	761
-266.8	62.4131	761
-267.591	62.9872	768
-271.122	64.2174	783
-269.427	64.2174	783
-271.492	65.1196	794
-269.773	65.1196	794
-266.028	64.6275	788
-264.322	64.6275	788
-261.949	64.4635	786
-260.247	64.4635	786
-250.979	62.5772	763
-249.327	62.5772	763
-244.104	61.675	752
-242.476	61.675	752
-237.965	60.9369	743
-236.356	60.9369	743
-226.532	58.8045	717
-222.156	58.0663	708
-220.623	58.0663	708
-217.233	57.5743	702
-215.713	57.5743	702
-212.667	57.1642	697
-211.158	57.1642	697
-208.746	56.9181	694
-207.243	56.9181	694
-204.555	56.5901	690
-203.061	56.5901	690
-200.398	56.262	686
-198.912	56.262	686
-196.851	56.098	684
-195.37	56.098	684
-193.322	55.934	682
-192.127	56.016	683
-190.648	56.016	683
-191.107	56.5901	690
-189.613	56.5901	690
-188.664	56.7541	692
-187.166	56.7541	692
-185.399	56.6721	691
-183.903	56.6721	691
-180.823	56.18	685
-179.339	56.18	685
-177.856	56.18	685
-176.373	56.18	685
-171.826	55.1958	673
-170.368	55.1958	673
-169.162	55.2779	674
-167.702	55.2779	674
-171.916	57.1642	697
-170.407	57.1642	697
-169.867	57.4922	701
-168.349	57.4922	701
-166.831	57.4922	701
-164.605	57.2462	698
-163.094	57.2462	698
-162.508	57.5743	702
-160.988	57.5743	702
-160.377	57.9023	706
-158.848	57.9023	706
-159.102	58.5584	714
-157.556	58.5584	714
-156.009	58.5584	714
-154.463	58.5584	714
-152.917	58.5584	714
-151.371	58.5584	714
-149.615	58.4764	713
-148.071	58.4764	713
-146.527	58.4764	713
-144.983	58.4764	713
-141.226	57.5743	702
-139.706	57.5743	702
-137.792	57.4102	700
-138.418	58.3124	711
-136.879	58.3124	711
-135.149	58.2304	710
-133.611	58.2304	710
-129.283	57.0002	695
-127.778	57.0002	695
-126.273	57.0002	695
-124.768	57.0002	695
-125.924	58.2304	710
-124.386	58.2304	710
-124.925	59.2146	722
-123.362	59.2146	722
-125.004	60.7728	741
-123.399	60.7728	741
-119.165	59.4606	725
-117.595	59.4606	725
-116.345	59.6246	727
-114.771	59.6246	727
-113.041	59.5426	726
-111.469	59.5426	726
-110.351	59.7887	729
-108.772	59.7887	729
-109.987	61.3469	748
-108.367	61.3469	748
-109.459	62.9052	767
-107.798	62.9052	767
-106.414	63.0692	769
-104.749	63.0692	769
-102.95	62.9872	768
-101.287	62.9872	768
-99.883	63.1513	770
-98.2156	63.1513	770
-96.9244	63.3973	773
-95.497	63.5613	775
-93.8188	63.5613	775
-92.2595	63.6433	776
-90.5791	63.6433	776
-89.0133	63.7254	777
-87.3307	63.7254	777
-85.3175	63.4793	774
-83.6415	63.4793	774
-81.8595	63.3973	773
-80.1857	63.3973	773
-78.1055	63.0692	769
-76.4403	63.0692	769
-74.6779	62.9872	768
-73.0148	62.9872	768
-71.166	62.8232	766
-69.5072	62.8232	766
-68.4686	63.3973	773
-66.7947	63.3973	773
-67.5639	65.7757	802
-65.8272	65.7757	802
-63.9307	65.6117	800
-62.1984	65.6117	800
-60.2393	65.3656	797
-58.5134	65.3656	797
-55.5763	63.9714	780
-53.8873	63.9714	780
-52.5998	64.4635	786
-50.8977	64.4635	786
-49.0705	64.2995	784
-47.3728	64.2995	784
-45.4421	63.9714	780
-43.7531	63.9714	780
-42.9269	65.2836	796
-41.2032	65.2836	796
-39.6283	65.5297	799
-37.8982	65.5297	799
-35.3985	64.1354	782
-33.7051	64.1354	782
-32.9532	66.0218	805
-31.2101	66.0218	805
-29.1741	65.3656	797
-27.4482	65.3656	797
-26.3033	66.8419	815
-24.5385	66.8419	815
-22.9693	67.416	822
-21.1893	67.416	822
-19.3385	67.17	819
-17.565	67.17	819
-15.8686	67.498	823
-14.0865	67.498	823
-12.6632	69.4664	847
-10.829	69.4664	847
-9.17546	70.8606	864
-7.30453	70.8606	864
-5.47762	71.4347	871
-3.59154	71.4347	871
-1.70937	71.5988	873
0.181051	71.5988	873
2.07384	71.6808	874
3.96642	71.6808	874
5.8523	71.5988	873
7.74272	71.5988	873
9.80969	72.911	889
11.7348	72.911	889
13.5676	72.4189	883
15.4797	72.4189	883
17.3918	72.4189	883
19.3038	72.4189	883
21.3841	72.993	890
23.3113	72.993	890
25.2386	72.993	890
27.1658	72.993	890
29.0603	72.911	889
30.9854	72.911	889
32.2811	71.5167	872
34.1694	71.5167	872
35.5614	70.5326	860
37.4237	70.5326	860
39.7885	71.4347	871
41.6745	71.4347	871
43.5606	71.4347	871
45.4467	71.4347	871
47.1154	71.1067	867
48.9929	71.1067	867
50.9289	71.1887	868
52.8085	71.1887	868
54.6881	71.1887	868
56.5677	71.1887	868
57.5046	70.0405	854
59.3539	70.0405	854
61.0598	69.8764	852
62.9048	69.8764	852
65.0537	70.2045	856
66.9073	70.2045	856
68.9216	70.3685	858
70.7795	70.3685	858
72.8914	70.6146	861
74.7559	70.6146	861
76.7093	70.6966	862
78.5759	70.6966	862
80.5358	70.7786	863
82.4045	70.7786	863
85.0545	71.4347	871
86.9406	71.4347	871
88.9287	71.5167	872
90.8169	71.5167	872
92.9178	71.6808	874
94.8104	71.6808	874
97.4775	72.2549	881
99.3852	72.2549	881
103.363	73.7311	899
105.309	73.7311	899
109.046	74.9614	914
111.025	74.9614	914
113.993	75.6175	922
115.99	75.6175	922
115.811	74.2232	905
117.77	74.2232	905
116.423	72.1729	880
118.328	72.1729	880
118.458	71.1067	867
113.395	67.0059	817
115.164	67.0059	817
110.636	63.3973	773
112.31	63.3973	773
692.344	132.372	1614
695.839	132.372	1614
698.468	132.208	1612
701.958	132.208	1612
704.574	132.044	1610
708.06	132.044	1610
710.221	131.797	1607
713.701	131.797	1607
715.395	131.469	1603
718.866	131.469	1603
722.338	131.469	1603
726.262	131.551	1604
729.735	131.551	1604
733.665	131.633	1605
737.141	131.633	1605
740.616	131.633	1605
744.092	131.633	1605
747.102	131.551	1604
750.575	131.551	1604
752.638	131.305	1601
756.105	131.305	1601
757.2	130.895	1596
760.656	130.895	1596
761.718	130.485	1591
765.163	130.485	1591
767.642	130.321	1589
771.083	130.321	1589
774.524	130.321	1589
777.964	130.321	1589
782.881	130.567	1592
786.328	130.567	1592
789.279	130.485	1591
792.724	130.485	1591
794.668	130.239	1588
798.107	130.239	1588
798.013	129.665	1581
801.436	129.665	1581
801.805	129.173	1575
805.216	129.173	1575
807.086	128.927	1572
810.49	128.927	1572
814.93	129.091	1574
818.338	129.091	1574
823.313	129.337	1577
826.727	129.337	1577
831.195	129.501	1579
834.614	129.501	1579
838.034	129.501	1579
841.453	129.501	1579
843.802	129.337	1577
847.217	129.337	1577
848.474	129.009	1573
851.88	129.009	1573
853.111	128.681	1569
856.509	128.681	1569
857.166	128.271	1564
860.553	128.271	1564
862.835	128.107	1562
866.217	128.107	1562
868.486	127.943	1560
893.29	125.728	1533
896.61	125.728	1533
899.929	125.728	1533
903.249	125.728	1533
906.568	125.728	1533
909.294	125.646	1532
912.612	125.646	1532
913.538	125.318	1528
916.847	125.318	1528
917.144	124.908	1523
920.442	124.908	1523
920.101	124.416	1517
923.386	124.416	1517
923.617	124.006	1512
926.891	124.006	1512
928.319	123.76	1509
931.587	123.76	1509
933.616	123.596	1507
936.879	123.596	1507
940.142	123.596	1507
942.78	123.514	1506
946.041	123.514	1506
-341.425	39.3969	468
-340.412	39.3969	468
-339.398	39.3969	468
-338.385	39.3969	468
-337.372	39.3969	468
-336.358	39.3969	468
-335.345	39.3969	468
-332.903	39.2285	466
-331.894	39.2285	466
-330.884	39.2285	466
-331.291	39.3969	468
-330.278	39.3969	468
-329.264	39.3969	468
-328.251	39.3969	468
-327.237	39.3969	468
-328.315	39.6494	471
-327.295	39.6494	471
-324.197	39.3969	468
-323.184	39.3969	468
-299.453	36.6189	435
-298.511	36.6189	435
-297.569	36.6189	435
-298.673	36.8715	438
-297.725	36.8715	438
-302.874	37.6291	447
-301.906	37.6291	447
-299.592	37.4607	445
-298.628	37.4607	445
-299.003	37.6291	447
-298.035	37.6291	447
-297.067	37.6291	447
-294.774	37.4607	445
-293.81	37.4607	445
-292.189	37.3765	444
-291.227	37.3765	444
-282.421	36.3664	432
-281.485	36.3664	432
-279.9	36.2822	431
-278.967	36.2822	431
-278.034	36.2822	431
-275.815	36.1138	429
-274.886	36.1138	429
-276.511	36.4505	433
-275.573	36.4505	433
-256.242	34.0093	404
-255.367	34.0093	404
-255.752	34.1777	406
-254.873	34.1777	406
-255.245	34.346	408
-254.362	34.346	408
-253.478	34.346	408
-254.452	34.5986	411
-253.562	34.5986	411
-254.516	34.8511	414
-253.62	34.8511	414
-255.776	35.272	419
-254.868	35.272	419
-255.779	35.5246	422
-254.865	35.5246	422
-256.359	35.8613	426
-255.436	35.8613	426
-256.904	36.198	430
-255.973	36.198	430
-257.414	36.5347	434
-256.474	36.5347	434
-258.478	36.9556	439
-257.528	36.9556	439
-258.915	37.2924	443
-257.956	37.2924	443
-256.996	37.2924	443
-258.927	37.7133	448
-257.957	37.7133	448
-259.281	38.05	452
-257.731	37.9658	451
-259.031	38.3025	455
-258.046	38.3025	455
-259.321	38.6393	459
-258.327	38.6393	459
-258.454	38.8076	461
-257.456	38.8076	461
-257.57	38.976	463
-256.568	38.976	463
-256.117	39.0602	464
-255.112	39.0602	464
-254.655	39.1444	465
-253.648	39.1444	465
-252.641	39.1444	465
-251.634	39.1444	465
-250.627	39.1444	465
-249.621	39.1444	465
-249.148	39.2285	466
-248.139	39.2285	466
-247.66	39.3127	467
-246.649	39.3127	467
-245.638	39.3127	467
-244.627	39.3127	467
-244.137	39.3969	468
-243.124	39.3969	468
-242.11	39.3969	468
-241.097	39.3969	468
-240.083	39.3969	468
-239.07	39.3969	468
-238.057	39.3969	468
-237.043	39.3969	468
-236.03	39.3969	468
-235.016	39.3969	468
-234.003	39.3969	468
-232.989	39.3969	468
-231.976	39.3969	468
-230.963	39.3969	468
-229.949	39.3969	468
-186.667	32.4098	385
-185.833	32.4098	385
-194.609	34.0935	405
-193.732	34.0935	405
-194.284	34.346	408
-193.401	34.346	408
-194.404	34.6827	412
-193.512	34.6827	412
-194.023	34.9353	415
-193.124	34.9353	415
-194.541	35.3562	420
-193.632	35.3562	420
-195.476	35.8613	426
-194.553	35.8613	426
-196.812	36.4505	433
-195.875	36.4505	433
-197.638	36.9556	439
-196.688	36.9556	439
-197.075	37.2082	442
-200.998	38.1342	453
-200.017	38.1342	453
-202.551	38.8076	461
-201.553	38.8076	461
-202.73	39.2285	466
-201.721	39.2285	466
-203.296	39.7336	472
-202.274	39.7336	472
-203.81	40.2387	478
-202.775	40.2387	478
-299.022	61.5366	731
-301.101	62.2942	740
-299.498	62.2942	740
-299.104	62.5468	743
-297.495	62.5468	743
-295.089	62.3784	741
-293.485	62.3784	741
-289.123	61.7892	734
-287.533	61.7892	734
-284.386	61.4524	730
-282.805	61.4524	730
-279.683	61.1157	726
-280.026	61.5366	731
-277.301	61.2841	728
-275.724	61.2841	728
-271.888	60.779	722
-269.576	60.6106	720
-268.017	60.6106	720
-265.718	60.4422	718
-264.163	60.4422	718
-266.632	61.3682	729
-265.053	61.3682	729
-268.173	62.4626	742
-266.566	62.4626	742
-271.387	63.9779	760
-269.741	63.9779	760
-268.448	64.062	761
-266.8	64.062	761
-267.591	64.6513	768
-271.122	65.914	783
-269.427	65.914	783
-271.492	66.84	794
-269.773	66.84	794
-266.028	66.3349	788
-264.322	66.3349	788
-261.949	66.1666	786
-260.247	66.1666	786
-250.979	64.2304	763
-249.327	64.2304	763
-244.104	63.3044	752
-242.476	63.3044	752
-237.965	62.5468	743
-236.356	62.5468	743
-226.532	60.3581	717
-222.156	59.6004	708
-220.623	59.6004	708
-217.233	59.0953	702
-215.713	59.0953	702
-212.667	58.6744	697
-211.158	58.6744	697
-208.746	58.4219	694
-207.243	58.4219	694
-204.555	58.0852	690
-203.061	58.0852	690
-200.398	57.7484	686
-198.912	57.7484	686
-196.851	57.5801	684
-195.37	57.5801	684
-193.322	57.4117	682
-192.127	57.4959	683
-190.648	57.4959	683
-191.107	58.0852	690
-189.613	58.0852	690
-188.664	58.2535	692
-187.166	58.2535	692
-185.399	58.1693	691
-183.903	58.1693	691
-180.823	57.6643	685
-179.339	57.6643	685
-177.856	57.6643	685
-176.373	57.6643	685
-171.826	56.6541	673
-170.368	56.6541	673
-169.162	56.7383	674
-167.702	56.7383	674
-171.916	58.6744	697
-170.407	58.6744	697
-169.867	59.0112	701
-168.349	59.0112	701
-166.831	59.0112	701
-164.605	58.7586	698
-163.094	58.7586	698
-162.508	59.0953	702
-160.988	59.0953	702
-160.377	59.4321	706
-158.848	59.4321	706
-159.102	60.1055	714
-157.556	60.1055	714
-156.009	60.1055	714
-154.463	60.1055	714
-152.917	60.1055	714
-151.371	60.1055	714
-149.615	60.0213	713
-148.071	60.0213	713
-146.527	60.0213	713
-144.983	60.0213	713
-141.226	59.0953	702
-139.706	59.0953	702
-137.792	58.927	700
-138.418	59.853	711
-136.879	59.853	711
-135.149	59.7688	710
-133.611	59.7688	710
-129.283	58.5061	695
-127.778	58.5061	695
-126.273	58.5061	695
-124.768	58.5061	695
-125.924	59.7688	710
-124.386	59.7688	710
-124.925	60.779	722
-123.362	60.779	722
-120.955	60.3581	717
-119.402	60.3581	717
-119	60.9473	724
-117.433	60.9473	724
-116.025	61.0315	725
-114.455	61.0315	725
-111.484	60.2739	716
-109.933	60.2739	716
-107.777	59.9372	712
-106.235	59.9372	712
-106.899	61.1999	727
-105.325	61.1999	727
-107.033	63.1361	750
-105.409	63.1361	750
-104.615	63.6411	756
-102.978	63.6411	756
-101.877	63.9779	760
-100.232	63.9779	760
-98.975	64.2304	763
-97.3228	64.2304	763
-95.4198	64.062	761
-93.7719	64.062	761
-90.9134	63.2202	751
-90.4761	64.062	761
-88.8282	64.062	761
-88.555	65.0722	773
-86.8812	65.0722	773
-84.105	64.2304	763
-82.4528	64.2304	763
-80.5888	64.062	761
-78.9409	64.062	761
-77.293	64.062	761
-75.6451	64.062	761
-74.1917	64.2304	763
-72.5395	64.2304	763
-70.5156	63.8937	759
-68.8721	63.8937	759
-67.5828	64.2304	763
-65.9306	64.2304	763
-64.3626	64.3146	764
-62.7082	64.3146	764
-60.6543	63.8937	759
-59.0107	63.8937	759
-57.0648	63.557	755
-55.4299	63.557	755
-53.4388	63.1361	750
-51.8147	63.1361	750
-50.8598	63.9779	760
-49.2141	63.9779	760
-47.2554	63.557	755
-45.6205	63.557	755
-43.6361	63.0519	749
-42.0142	63.0519	749
-40.9855	63.9779	760
-39.3398	63.9779	760
-37.5452	63.7253	757
-35.906	63.7253	757
-33.8594	62.9677	748
-32.2397	62.9677	748
-30.6199	62.9677	748
-29.0002	62.9677	748
-27.417	63.0519	749
-25.7951	63.0519	749
-24.2701	63.3044	752
-22.6417	63.3044	752
-21.8795	65.914	783
-20.184	65.914	783
-18.4884	65.914	783
-16.7929	65.914	783
-15.0974	65.914	783
-13.4018	65.914	783
-12.0053	67.5977	803
-10.2665	67.5977	803
-8.74005	69.2813	823
-6.9579	69.2813	823
-5.21349	69.7864	829
-3.41835	69.7864	829
-1.64279	70.6282	839
0.174	70.6282	839
2.05011	72.7327	864
3.92104	72.7327	864
5.75845	72.3118	859
7.61855	72.3118	859
9.48969	72.396	860
11.352	72.396	860
13.1528	72.0593	856
15.0064	72.0593	856
16.4857	70.4598	837
18.2982	70.4598	837
20.1827	70.7124	840
22.0017	70.7124	840
23.6505	70.2073	834
25.4565	70.2073	834
27.524	70.8807	842
29.3472	70.8807	842
30.5782	69.5338	826
32.3669	69.5338	826
34.3209	69.8706	830
36.1182	69.8706	830
38.281	70.544	838
40.0956	70.544	838
42.7604	71.9751	855
44.6119	71.9751	855
46.409	71.8909	854
48.2582	71.8909	854
50.0488	71.8067	853
51.896	71.8067	853
53.554	71.5542	850
55.3947	71.5542	850
56.4272	70.544	838
58.2419	70.544	838
60.0565	70.544	838
61.8711	70.544	838
64.3697	71.3017	847
66.2038	71.3017	847
67.6363	70.8807	842
69.4596	70.8807	842
70.0977	69.7022	828
71.8906	69.7022	828
73.4166	69.4497	825
75.2031	69.4497	825
77.4562	69.8706	830
79.2535	69.8706	830
82.4179	71.0491	844
84.2456	71.0491	844
86.787	71.6384	851
88.6298	71.6384	851
91.6421	72.5644	862
93.5087	72.5644	862
95.8178	72.9011	866
97.6931	72.9011	866
100.488	73.5745	874
102.381	73.5745	874
105.824	74.6689	887
107.745	74.6689	887
110.284	75.0898	892
112.215	75.0898	892
111.46	73.322	871
113.346	73.322	871
110.601	70.3757	836
110.529	69.1971	822
112.309	69.1971	822
113.395	68.7762	817
115.164	68.7762	817
110.636	65.0722	773
112.31	65.0722	773
108.675	62.0417	737
110.271	62.0417	737
692.344	135.869	1614
695.839	135.869	1614
698.901	135.785	1613
702.394	135.785	1613
705.012	135.616	1611
708.5	135.616	1611
710.221	135.28	1607
713.701	135.28	1607
715.842	135.027	1604
718.418	134.859	1602
721.887	134.859	1602
725.356	134.859	1602
728.825	134.859	1602
732.751	134.943	1603
736.222	134.943	1603
740.616	135.111	1605
744.092	135.111	1605
748.033	135.195	1606
751.511	135.195	1606
754.048	135.027	1604
757.522	135.027	1604
759.097	134.69	1600
762.562	134.69	1600
764.112	134.354	1596
767.568	134.354	1596
770.057	134.185	1594
