-186.87	53.8509	341
-186.219	53.8509	341
-185.569	53.8509	341
-147.432	50.3767	319
-146.823	50.3767	319
-146.215	50.3767	319
-145.606	50.3767	319
-144.998	50.3767	319
-144.389	50.3767	319
-143.781	50.3767	319
-143.621	50.5346	320
-143.011	50.5346	320
-143.29	50.8504	322
-143.562	51.1663	324
-142.944	51.1663	324
-143.205	51.4821	326
-142.583	51.4821	326
-143.268	51.9559	329
-143.941	52.4296	332
-143.307	52.4296	332
-143.963	52.9034	335
-143.324	52.9034	335
-143.963	53.3772	338
-145.014	54.0088	342
-144.362	54.0088	342
-144.97	54.4826	345
-145.149	54.7984	347
-144.487	54.7984	347
-144.654	55.1143	349
-143.988	55.1143	349
-144.144	55.4301	351
-143.474	55.4301	351
-143.619	55.746	353
-142.945	55.746	353
-143.481	56.2197	356
-143.604	56.5356	358
-142.921	56.5356	358
-143.828	57.1673	362
-143.137	57.1673	362
-143.627	57.641	365
-144.497	58.2727	369
-143.793	58.2727	369
-144.253	58.7465	372
-143.543	58.7465	372
-144.37	59.3781	376
-144.799	59.8519	379
-144.076	59.8519	379
-144.866	60.4836	383
-144.135	60.4836	383
-144.528	60.9573	386
-144.909	61.4311	389
-144.167	61.4311	389
-144.9	62.0628	393
-144.15	62.0628	393
-144.495	62.5366	396
-145.192	63.1682	400
-144.429	63.1682	400
-145.102	63.7999	404
-144.332	63.7999	404
-144.982	64.4316	408
-145.618	65.0633	412
-144.832	65.0633	412
-145.445	65.695	416
-144.651	65.695	416
-145.241	66.3266	420
-144.44	66.3266	420
-144.665	66.8004	423
-145.218	67.4321	427
-144.404	67.4321	427
-144.934	68.0638	431
-145.45	68.6954	435
-145.617	69.1692	438
-144.782	69.1692	438
-145.261	69.8009	442
-144.418	69.8009	442
-144.549	70.2747	445
-143.7	70.2747	445
-144.457	71.0643	450
-143.598	71.0643	450
-144.009	71.6959	454
-144.404	72.3276	458
-143.53	72.3276	458
-143.279	72.6435	460
-142.402	72.6435	460
-142.14	72.9593	462
-141.259	72.9593	462
-140.681	73.1172	463
-141.006	73.7489	467
-140.115	73.7489	467
-142.802	75.644	479
-142.48	75.9598	481
-141.269	75.8019	480
-140.353	75.8019	480
-139.437	75.8019	480
-138.81	75.9598	481
-137.893	75.9598	481
-136.975	75.9598	481
-136.058	75.9598	481
-135.14	75.9598	481
-136.734	77.3811	490
-135.8	77.3811	490
-134.865	77.3811	490
-135.844	78.4865	497
-136.253	79.2761	502
-135.295	79.2761	502
-134.338	79.2761	502
-133.38	79.2761	502
-132.423	79.2761	502
-131.465	79.2761	502
-132.847	80.6974	511
-135.485	82.9083	525
-134.74	83.0662	526
-133.737	83.0662	526
-132.733	83.0662	526
-132.732	83.6979	530
-131.721	83.6979	530
-129.723	83.0662	526
-128.72	83.0662	526
-127.717	83.0662	526
-130.086	85.2771	540
-123.284	82.1187	520
-122.292	82.1187	520
-121.3	82.1187	520
-118.458	80.8553	512
-117.481	80.8553	512
-116.504	80.8553	512
-115.302	80.6974	511
-114.327	80.6974	511
-112.687	80.2237	508
-111.718	80.2237	508
-110.749	80.2237	508
-109.348	79.9078	506
-107.954	79.592	504
-106.993	79.592	504
-104.349	78.3286	496
-103.194	78.1707	495
-101.424	77.539	491
-100.487	77.539	491
-99.3476	77.3811	490
-98.4129	77.3811	490
-97.4783	77.3811	490
-95.9525	76.9073	487
-95.0236	76.9073	487
-93.515	76.4336	484
-92.5918	76.4336	484
-91.6685	76.4336	484
-90.3703	76.1177	482
-89.4509	76.1177	482
-88.3478	75.9598	481
-86.5215	75.1702	476
-85.6135	75.1702	476
-84.1717	74.6964	473
-83.2695	74.6964	473
-82.3672	74.6964	473
-81.2928	74.5385	472
-80.3924	74.5385	472
-79.4921	74.5385	472
-78.9248	74.8544	474
-78.1852	75.0123	475
-77.2792	75.0123	475
-77.3378	75.9598	481
-75.7848	75.3281	477
-74.8749	75.3281	477
-73.9651	75.3281	477
-72.5957	74.8544	474
-71.6916	74.8544	474
-70.4887	74.5385	472
-68.8512	73.7489	467
-67.9604	73.7489	467
-67.0696	73.7489	467
-66.3206	73.9068	468
-65.4279	73.9068	468
-64.9488	74.3806	471
-63.9144	74.2227	470
-63.0179	74.2227	470
-62.1214	74.2227	470
-60.9643	73.9068	468
-60.0716	73.9068	468
-59.1789	73.9068	468
-58.5353	74.2227	470
-57.7614	74.3806	471
-56.863	74.3806	471
-55.9646	74.3806	471
-55.0661	74.3806	471
-54.3977	74.6964	473
-53.3824	74.5385	472
-52.4821	74.5385	472
-51.5817	74.5385	472
-49.9298	73.4331	465
-49.0428	73.4331	465
-48.1558	73.4331	465
-47.2688	73.4331	465
-46.7808	74.0648	469
-45.984	74.2227	470
-45.0875	74.2227	470
-44.191	74.2227	470
-43.2945	74.2227	470
-42.398	74.2227	470
-41.5897	74.3806	471
-40.6913	74.3806	471
-39.8774	74.5385	472
-38.977	74.5385	472
-38.3187	75.0123	475
-37.4127	75.0123	475
-36.8909	75.8019	480
-35.9753	75.8019	480
-35.1327	75.9598	481
-34.2152	75.9598	481
-33.2977	75.9598	481
-32.3802	75.9598	481
-31.4627	75.9598	481
-30.4817	75.8019	480
-29.5661	75.8019	480
-28.6505	75.8019	480
-27.7927	75.9598	481
-26.8752	75.9598	481
-26.4974	77.539	491
-25.717	78.0128	494
-24.6744	77.6969	492
-23.7359	77.6969	492
-22.7974	77.6969	492
-21.6368	76.9073	487
-20.7078	76.9073	487
-19.7789	76.9073	487
-19.0435	77.6969	492
-18.0682	77.539	491
-17.1316	77.539	491
-16.195	77.539	491
-15.2585	77.539	491
-14.3219	77.539	491
-13.3035	77.0652	488
-12.3727	77.0652	488
-11.4184	76.9073	487
-10.4894	76.9073	487
-9.56047	76.9073	487
-8.63152	76.9073	487
-7.70258	76.9073	487
-6.77363	76.9073	487
-5.84468	76.9073	487
-4.90564	76.7494	486
-3.9786	76.7494	486
-3.05157	76.7494	486
-2.12015	76.5915	485
-1.19502	76.5915	485
-0.269891	76.5915	485
0.656592	76.7494	486
1.58363	76.7494	486
2.53133	77.3811	490
3.466	77.3811	490
4.49946	79.1182	501
5.45511	79.1182	501
6.41077	79.1182	501
7.36642	79.1182	501
8.25563	78.4865	497
9.20365	78.4865	497
10.1517	78.4865	497
10.9657	77.539	491
11.9023	77.539	491
12.8388	77.539	491
13.8596	78.0128	494
14.8019	78.0128	494
15.7442	78.0128	494
16.6865	78.0128	494
17.5574	77.6969	492
18.4959	77.6969	492
19.4344	77.6969	492
20.3729	77.6969	492
21.3113	77.6969	492
22.4307	78.3286	496
23.1883	77.6969	492
24.1268	77.6969	492
25.0653	77.6969	492
26.0038	77.6969	492
27.0518	78.0128	494
27.9941	78.0128	494
29.2293	78.8024	499
30.3625	79.2761	502
31.3201	79.2761	502
32.5991	80.0657	507
33.5662	80.0657	507
34.7377	80.5395	510
35.7105	80.5395	510
36.8991	81.0133	513
37.8038	80.8553	512
38.7804	80.8553	512
39.7571	80.8553	512
40.3359	80.0657	507
41.303	80.0657	507
42.2701	80.0657	507
42.7255	79.1182	501
43.6812	79.1182	501
44.6368	79.1182	501
45.6835	79.2761	502
46.641	79.2761	502
47.6934	79.4341	503
48.6529	79.4341	503
50.2041	80.3816	509
51.1751	80.3816	509
52.2484	80.5395	510
53.2212	80.5395	510
54.3003	80.6974	511
55.275	80.6974	511
56.2498	80.6974	511
57.2245	80.6974	511
58.0853	80.5395	510
59.0582	80.5395	510
59.9133	80.3816	509
60.8842	80.3816	509
61.8551	80.3816	509
62.7026	80.2237	508
63.6716	80.2237	508
64.2588	79.7499	505
65.2221	79.7499	505
66.1854	79.7499	505
67.1487	79.7499	505
68.112	79.7499	505
69.0752	79.7499	505
70.732	80.5395	510
72.2672	81.1712	514
73.2476	81.1712	514
75.0946	82.1187	520
76.0865	82.1187	520
77.0783	82.1187	520
78.0702	82.1187	520
78.758	81.8029	518
79.7461	81.8029	518
80.7342	81.8029	518
80.3024	80.3816	509
81.2733	80.3816	509
82.2442	80.3816	509
83.2151	80.3816	509
84.1861	80.3816	509
84.3204	79.592	504
85.2818	79.592	504
86.2432	79.592	504
88.7618	81.0133	513
89.7403	81.0133	513
90.7189	81.0133	513
91.6974	81.0133	513
93.0373	81.3291	515
94.0196	81.3291	515
95.002	81.3291	515
96.1707	81.487	516
97.155	81.487	516
98.3294	81.6449	517
99.3156	81.6449	517
100.884	82.1187	520
101.876	82.1187	520
101.285	80.8553	512
102.262	80.8553	512
103.037	80.6974	511
104.011	80.6974	511
104.986	80.6974	511
105.753	80.5395	510
106.726	80.5395	510
107.277	80.2237	508
108.246	80.2237	508
109.215	80.2237	508
110.618	80.5395	510
111.59	80.5395	510
111.239	79.592	504
112.2	79.592	504
113.162	79.592	504
113.897	79.4341	503
114.856	79.4341	503
115.125	78.9603	500
116.079	78.9603	500
116.798	78.8024	499
116.806	78.1707	495
117.75	78.1707	495
118.215	77.8549	493
119.155	77.8549	493
120.096	77.8549	493
120.545	77.539	491
121.482	77.539	491
122.418	77.539	491
123.606	77.6969	492
124.291	77.539	491
123.188	76.2756	483
124.109	76.2756	483
125.03	76.2756	483
128.038	77.539	491
123.458	74.2227	470
124.355	74.2227	470
125.251	74.2227	470
126.148	74.2227	470
127.044	74.2227	470
127.669	74.0648	469
128.563	74.0648	469
129.458	74.0648	469
130.352	74.0648	469
132.087	74.5385	472
132.987	74.5385	472
134.738	75.0123	475
135.644	75.0123	475
136.55	75.0123	475
137.456	75.0123	475
138.362	75.0123	475
139.268	75.0123	475
140.174	75.0123	475
141.081	75.0123	475
141.987	75.0123	475
142.893	75.0123	475
143.799	75.0123	475
734.125	246.356	1560
737.101	246.356	1560
739.602	246.198	1559
742.576	246.198	1559
745.55	246.198	1559
747.563	245.882	1557
750.533	245.882	1557
751.083	245.093	1552
754.044	245.093	1552
753.59	243.987	1545
756.537	243.987	1545
759.484	243.987	1545
758.977	242.882	1538
761.91	242.882	1538
762.855	242.25	1534
765.781	242.25	1534
767.705	241.934	1532
770.627	241.934	1532
772.54	241.618	1530
775.458	241.618	1530
778.377	241.618	1530
781.295	241.618	1530
784.214	241.618	1530
787.132	241.618	1530
790.05	241.618	1530
792.969	241.618	1530
797.448	242.092	1533
800.372	242.092	1533
804.344	242.408	1535
807.272	242.408	1535
810.2	242.408	1535
813.128	242.408	1535
814.993	242.092	1533
817.917	242.092	1533
820.306	241.934	1532
823.228	241.934	1532
826.15	241.934	1532
826.367	241.145	1527
829.28	241.145	1527
827.832	239.881	1519
830.73	239.881	1519
831.981	239.408	1516
834.873	239.408	1516
837.764	239.408	1516
840.656	239.408	1516
843.548	239.408	1516
846.44	239.408	1516
849.892	239.566	1517
852.785	239.566	1517
857.371	240.039	1520
860.271	240.039	1520
864.306	240.355	1522
867.209	240.355	1522
865.539	239.092	1514
868.427	239.092	1514
871.314	239.092	1514
874.202	239.092	1514
875.932	238.776	1512
878.816	238.776	1512
881.7	238.776	1512
884.245	232.617	1473
887.055	232.617	1473
889.865	232.617	1473
893.28	232.775	1474
896.092	232.775	1474
901.953	233.565	1479
904.774	233.565	1479
907.595	233.565	1479
914.11	234.512	1485
916.942	234.512	1485
921.633	234.986	1488
923.85	234.828	1487
-202.536	54.3419	340
-201.887	54.3419	340
-201.238	54.3419	340
-200.59	54.3419	340
-199.941	54.3419	340
-199.293	54.3419	340
-198.644	54.3419	340
-197.996	54.3419	340
-197.347	54.3419	340
-196.699	54.3419	340
-196.05	54.3419	340
-195.402	54.3419	340
-194.753	54.3419	340
-194.104	54.3419	340
-193.456	54.3419	340
-192.807	54.3419	340
-192.159	54.3419	340
-191.51	54.3419	340
-191.423	54.5017	341
-190.773	54.5017	341
-190.122	54.5017	341
-189.472	54.5017	341
-188.821	54.5017	341
-188.171	54.5017	341
-187.52	54.5017	341
-186.87	54.5017	341
-186.219	54.5017	341
-185.569	54.5017	341
-147.432	50.9855	319
-146.823	50.9855	319
-146.215	50.9855	319
-145.606	50.9855	319
-144.998	50.9855	319
-144.389	50.9855	319
-143.781	50.9855	319
-143.621	51.1453	320
-143.011	51.1453	320
-143.29	51.465	322
-143.562	51.7846	324
-142.944	51.7846	324
-143.205	52.1043	326
-142.583	52.1043	326
-143.268	52.5838	329
-143.941	53.0633	332
-143.307	53.0633	332
-143.963	53.5428	335
-143.324	53.5428	335
-143.963	54.0222	338
-145.014	54.6616	342
-144.362	54.6616	342
-144.97	55.141	345
-145.149	55.4607	347
-144.487	55.4607	347
-144.654	55.7804	349
-143.988	55.7804	349
-144.144	56.1	351
-143.474	56.1	351
-143.619	56.4197	353
-142.945	56.4197	353
-143.481	56.8992	356
-144.005	57.3787	359
-143.321	57.3787	359
-143.828	57.8581	362
-143.137	57.8581	362
-143.627	58.3376	365
-144.497	58.9769	369
-143.793	58.9769	369
-144.253	59.4564	372
-143.543	59.4564	372
-144.37	60.0958	376
-144.799	60.5752	379
-144.076	60.5752	379
-144.866	61.2146	383
-144.135	61.2146	383
-144.528	61.694	386
-144.909	62.1735	389
-144.167	62.1735	389
-144.9	62.8128	393
-144.15	62.8128	393
-144.495	63.2923	396
-145.192	63.9316	400
-144.429	63.9316	400
-145.102	64.571	404
-144.332	64.571	404
-144.982	65.2103	408
-145.618	65.8496	412
-144.832	65.8496	412
-145.445	66.4889	416
-144.651	66.4889	416
-145.241	67.1282	420
-145.472	67.6077	423
-144.665	67.6077	423
-145.218	68.247	427
-144.404	68.247	427
-144.934	68.8864	431
-145.45	69.5257	435
-145.617	70.0052	438
-144.782	70.0052	438
-145.261	70.6445	442
-144.418	70.6445	442
-144.549	71.124	445
-143.7	71.124	445
-144.457	71.9231	450
-143.598	71.9231	450
-144.009	72.5624	454
-144.404	73.2017	458
-143.53	73.2017	458
-143.279	73.5214	460
-142.402	73.5214	460
-142.14	73.8411	462
-141.259	73.8411	462
-140.681	74.0009	463
-141.006	74.6402	467
-140.115	74.6402	467
-142.802	76.5582	479
-142.48	76.8778	481
-141.269	76.718	480
-140.353	76.718	480
-139.437	76.718	480
-138.81	76.8778	481
-137.893	76.8778	481
-136.975	76.8778	481
-136.058	76.8778	481
-134.859	76.718	480
-133.944	76.718	480
-133.028	76.718	480
-132.113	76.718	480
-131.197	76.718	480
-134.624	79.2752	496
-133.678	79.2752	496
-133	79.4351	497
-132.052	79.4351	497
-131.104	79.4351	497
-130.156	79.4351	497
-129.208	79.4351	497
-129.55	80.2342	502
-129.105	80.5539	504
-128.143	80.5539	504
-128.948	81.6727	511
-127.974	81.6727	511
-127.744	82.1522	514
-126.764	82.1522	514
-125.783	82.1522	514
-125.531	82.6317	517
-124.304	82.4718	516
-123.32	82.4718	516
-122.336	82.4718	516
-120.411	81.8325	512
-119.434	81.8325	512
-117.995	81.5129	510
-117.022	81.5129	510
-116.049	81.5129	510
-114.625	81.1932	508
-113.656	81.1932	508
-112.687	81.1932	508
-110.619	80.3941	503
-109.659	80.3941	503
-108.7	80.3941	503
-104.741	78.1564	489
-103.809	78.1564	489
-102.876	78.1564	489
-100.901	77.3573	484
-99.9776	77.3573	484
-99.4636	77.677	486
-98.3339	77.5171	485
-97.4087	77.5171	485
-97.4783	78.3163	490
-95.9525	77.8368	487
-95.0236	77.8368	487
-93.515	77.3573	484
-92.5918	77.3573	484
-91.6685	77.3573	484
-90.3703	77.0376	482
-89.4509	77.0376	482
-88.5315	77.0376	482
-86.5215	76.0787	476
-85.6135	76.0787	476
-84.1717	75.5992	473
-83.2695	75.5992	473
-82.3672	75.5992	473
-81.2928	75.4393	472
-80.3924	75.4393	472
-79.4921	75.4393	472
-78.9248	75.759	474
-78.1852	75.9188	475
-77.2792	75.9188	475
-77.3378	76.8778	481
-75.7848	76.2385	477
-74.8749	76.2385	477
-73.9651	76.2385	477
-72.5957	75.759	474
-71.6916	75.759	474
-70.7874	75.759	474
-68.8512	74.6402	467
-67.9604	74.6402	467
-67.0696	74.6402	467
-66.3206	74.8	468
-65.4279	74.8	468
-64.9488	75.2795	471
-63.9144	75.1197	470
-63.0179	75.1197	470
-62.1214	75.1197	470
-60.9643	74.8	468
-60.0716	74.8	468
-59.1789	74.8	468
-58.5353	75.1197	470
-57.7614	75.2795	471
-56.863	75.2795	471
-55.9646	75.2795	471
-55.0661	75.2795	471
-54.3977	75.5992	473
-53.3824	75.4393	472
-52.4821	75.4393	472
-51.5817	75.4393	472
-49.9298	74.3205	465
-49.0428	74.3205	465
-48.1558	74.3205	465
-47.2688	74.3205	465
-46.7808	74.9599	469
-45.984	75.1197	470
-45.0875	75.1197	470
-44.191	75.1197	470
-43.2945	75.1197	470
-42.398	75.1197	470
-41.5897	75.2795	471
-40.6913	75.2795	471
-39.8774	75.4393	472
-38.977	75.4393	472
-38.3187	75.9188	475
-37.4127	75.9188	475
-36.6603	76.2385	477
-35.7504	76.2385	477
-34.9136	76.3983	478
-34.0018	76.3983	478
-33.09	76.3983	478
-32.0436	76.0787	476
-31.1357	76.0787	476
-30.1642	75.9188	475
-29.2581	75.9188	475
-28.3521	75.9188	475
-27.0993	74.9599	469
-26.2047	74.9599	469
-25.3101	74.9599	469
-25.0402	76.8778	481
-24.6242	78.4761	491
-23.5429	77.9966	488
-22.6121	77.9966	488
-21.6368	77.8368	487
-20.4952	77.0376	482
-19.5758	77.0376	482
-18.6564	77.0376	482
-17.737	77.0376	482
-16.8176	77.0376	482
-16.0631	77.8368	487
-15.1342	77.8368	487
-14.001	76.718	480
-13.0854	76.718	480
-12.1698	76.718	480
-11.2777	76.8778	481
-10.3602	76.8778	481
-9.56047	77.8368	487
-8.63152	77.8368	487
-7.70258	77.8368	487
-6.77363	77.8368	487
-5.84468	77.8368	487
-4.90564	77.677	486
-3.9786	77.677	486
-3.05157	77.677	486
-2.12015	77.5171	485
-1.19502	77.5171	485
-0.269891	77.5171	485
0.656592	77.677	486
1.58363	77.677	486
2.53133	78.3163	490
3.466	78.3163	490
4.49946	80.0744	501
5.45511	80.0744	501
6.41077	80.0744	501
7.36642	80.0744	501
8.25563	79.4351	497
9.20365	79.4351	497
10.1517	79.4351	497
10.9657	78.4761	491
11.9023	78.4761	491
12.8388	78.4761	491
13.8596	78.9556	494
14.8019	78.9556	494
15.7442	78.9556	494
16.6865	78.9556	494
17.5574	78.6359	492
18.4959	78.6359	492
19.4344	78.6359	492
20.3729	78.6359	492
21.3113	78.6359	492
22.4307	79.2752	496
23.1883	78.6359	492
24.1268	78.6359	492
25.0653	78.6359	492
26.0038	78.6359	492
27.0518	78.9556	494
27.9941	78.9556	494
29.2293	79.7547	499
30.3625	80.2342	502
31.3201	80.2342	502
32.5991	81.0334	507
33.5662	81.0334	507
34.7377	81.5129	510
35.7105	81.5129	510
36.8991	81.9923	513
37.8038	81.8325	512
38.7804	81.8325	512
39.7571	81.8325	512
40.3359	81.0334	507
41.303	81.0334	507
42.2701	81.0334	507
42.7255	80.0744	501
43.6812	80.0744	501
44.6368	80.0744	501
45.6835	80.2342	502
46.641	80.2342	502
47.6934	80.3941	503
48.6529	80.3941	503
50.2041	81.353	509
51.1751	81.353	509
52.2484	81.5129	510
53.2212	81.5129	510
54.3003	81.6727	511
55.275	81.6727	511
56.2498	81.6727	511
57.2245	81.6727	511
58.0853	81.5129	510
59.0582	81.5129	510
59.9133	81.353	509
60.8842	81.353	509
61.8551	81.353	509
62.7026	81.1932	508
63.6716	81.1932	508
64.2588	80.7137	505
65.2221	80.7137	505
66.1854	80.7137	505
67.1487	80.7137	505
68.112	80.7137	505
69.0752	80.7137	505
70.732	81.5129	510
72.2672	82.1522	514
73.2476	82.1522	514
75.0946	83.1111	520
76.0865	83.1111	520
77.0783	83.1111	520
78.0702	83.1111	520
78.758	82.7915	518
79.7461	82.7915	518
80.7342	82.7915	518
80.3024	81.353	509
81.2733	81.353	509
82.2442	81.353	509
83.2151	81.353	509
84.1861	81.353	509
84.3204	80.5539	504
85.2818	80.5539	504
86.2432	80.5539	504
88.7618	81.9923	513
89.7403	81.9923	513
90.7189	81.9923	513
91.6974	81.9923	513
93.0373	82.312	515
94.0196	82.312	515
95.002	82.312	515
96.1707	82.4718	516
97.155	82.4718	516
98.3294	82.6317	517
99.3156	82.6317	517
100.884	83.1111	520
101.876	83.1111	520
101.285	81.8325	512
102.262	81.8325	512
103.037	81.6727	511
104.011	81.6727	511
104.986	81.6727	511
105.753	81.5129	510
106.726	81.5129	510
107.277	81.1932	508
108.246	81.1932	508
109.215	81.1932	508
110.618	81.5129	510
111.59	81.5129	510
111.239	80.5539	504
112.2	80.5539	504
113.162	80.5539	504
113.897	80.3941	503
114.856	80.3941	503
115.125	79.9146	500
116.079	79.9146	500
117.032	79.9146	500
116.806	79.1154	495
117.75	79.1154	495
118.215	78.7958	493
119.155	78.7958	493
120.096	78.7958	493
120.545	78.4761	491
121.482	78.4761	491
122.418	78.4761	491
123.606	78.6359	492
124.545	78.6359	492
123.188	77.1975	483
124.109	77.1975	483
125.03	77.1975	483
402.889	246.936	1545
123.458	75.1197	470
124.355	75.1197	470
125.251	75.1197	470
126.148	75.1197	470
127.044	75.1197	470
127.669	74.9599	469
128.563	74.9599	469
129.458	74.9599	469
130.352	74.9599	469
132.087	75.4393	472
132.987	75.4393	472
134.738	75.9188	475
135.644	75.9188	475
136.55	75.9188	475
137.456	75.9188	475
138.362	75.9188	475
139.268	75.9188	475
140.174	75.9188	475
141.081	75.9188	475
141.987	75.9188	475
142.893	75.9188	475
143.799	75.9188	475
732.243	248.694	1556
735.211	248.694	1556
738.179	248.694	1556
742.576	249.174	1559
745.55	249.174	1559
747.563	248.854	1557
750.533	248.854	1557
751.083	248.055	1552
754.044	248.055	1552
753.59	246.936	1545
756.537	246.936	1545
759.484	246.936	1545
758.977	245.817	1538
761.91	245.817	1538
762.855	245.178	1534
765.781	245.178	1534
767.705	244.858	1532
770.627	244.858	1532
772.54	244.539	1530
775.458	244.539	1530
778.377	244.539	1530
781.295	244.539	1530
784.214	244.539	1530
787.132	244.539	1530
790.05	244.539	1530
792.969	244.539	1530
797.448	245.018	1533
800.372	245.018	1533
804.344	245.338	1535
807.272	245.338	1535
810.2	245.338	1535
813.128	245.338	1535
814.993	245.018	1533
817.917	245.018	1533
820.306	244.858	1532
823.228	244.858	1532
826.15	244.858	1532
826.367	244.059	1527
829.28	244.059	1527
827.832	242.78	1519
830.73	242.78	1519
831.981	242.301	1516
834.873	242.301	1516
837.764	242.301	1516
840.656	242.301	1516
843.548	242.301	1516
846.44	242.301	1516
849.892	242.461	1517
852.785	242.461	1517
857.371	242.94	1520
860.271	242.94	1520
864.306	243.26	1522
867.209	243.26	1522
865.539	241.981	1514
868.427	241.981	1514
871.314	241.981	1514
874.202	241.981	1514
875.932	241.662	1512
878.816	241.662	1512
881.7	241.662	1512
884.245	235.428	1473
887.055	235.428	1473
889.865	235.428	1473
893.28	235.588	1474
896.092	235.588	1474
901.953	236.387	1479
904.774	236.387	1479
907.595	236.387	1479
914.11	237.346	1485
916.942	237.346	1485
920.394	237.506	1486
921.986	237.186	1484
-202.536	54.9908	340
-201.887	54.9908	340
-201.238	54.9908	340
-200.59	54.9908	340
-199.941	54.9908	340
-199.293	54.9908	340
-198.644	54.9908	340
-197.996	54.9908	340
-197.347	54.9908	340
-196.699	54.9908	340
-196.05	54.9908	340
-195.402	54.9908	340
-194.753	54.9908	340
-194.104	54.9908	340
-193.456	54.9908	340
-192.807	54.9908	340
-192.159	54.9908	340
-191.51	54.9908	340
-190.862	54.9908	340
-190.213	54.9908	340
-189.565	54.9908	340
-188.916	54.9908	340
-188.268	54.9908	340
-147.432	51.5943	319
-146.823	51.5943	319
-146.215	51.5943	319
-145.606	51.5943	319
-144.998	51.5943	319
-144.389	51.5943	319
-143.781	51.5943	319
-143.621	51.7561	320
-143.011	51.7561	320
-142.845	51.9178	321
-142.233	51.9178	321
-142.944	52.403	324
-143.205	52.7265	326
-142.583	52.7265	326
-143.268	53.2117	329
-143.941	53.6969	332
-143.307	53.6969	332
-143.963	54.1821	335
-143.324	54.1821	335
-143.963	54.6673	338
-144.59	55.1525	341
-143.94	55.1525	341
-144.97	55.7995	345
-145.149	56.123	347
-144.487	56.123	347
-144.654	56.4464	349
-143.988	56.4464	349
-144.144	56.7699	351
-143.474	56.7699	351
-143.619	57.0934	353
-142.945	57.0934	353
-143.481	57.5786	356
-144.005	58.0638	359
-143.321	58.0638	359
-143.828	58.549	362
-143.137	58.549	362
-143.627	59.0342	365
-144.497	59.6812	369
-143.793	59.6812	369
-144.253	60.1664	372
-143.543	60.1664	372
-144.37	60.8134	376
-144.799	61.2986	379
-144.076	61.2986	379
-144.487	61.7838	382
-143.759	61.7838	382
-144.153	62.269	385
-144.909	62.916	389
-144.167	62.916	389
-144.531	63.4012	392
-143.783	63.4012	392
-144.495	64.0481	396
-144.829	64.5333	399
-144.068	64.5333	399
-144.743	65.1803	403
-143.974	65.1803	403
-144.627	65.8272	407
-143.851	65.8272	407
-144.481	66.4742	411
-145.095	67.1211	415
-144.304	67.1211	415
-144.895	67.7681	419
-144.096	67.7681	419
-144.665	68.415	423
-145.218	69.062	427
-144.404	69.062	427
-144.934	69.7089	431
-145.45	70.3559	435
-145.617	70.8411	438
-144.782	70.8411	438
-145.261	71.4881	442
-144.418	71.4881	442
-144.549	71.9733	445
-143.7	71.9733	445
-144.457	72.782	450
-143.598	72.782	450
-144.009	73.4289	454
-144.404	74.0759	458
-143.53	74.0759	458
-143.279	74.3993	460
-142.402	74.3993	460
-142.14	74.7228	462
-141.259	74.7228	462
-140.681	74.8845	463
-141.006	75.5315	467
-140.115	75.5315	467
-142.802	77.4723	479
-142.48	77.7958	481
-141.269	77.6341	480
-140.353	77.6341	480
-139.437	77.6341	480
-138.81	77.7958	481
-137.893	77.7958	481
-136.975	77.7958	481
-136.058	77.7958	481
-134.859	77.6341	480
-133.944	77.6341	480
-133.028	77.6341	480
-132.113	77.6341	480
-131.197	77.6341	480
-134.624	80.2219	496
-133.678	80.2219	496
-133	80.3836	497
-132.052	80.3836	497
-131.104	80.3836	497
-130.156	80.3836	497
-129.208	80.3836	497
-129.55	81.1923	502
-129.105	81.5158	504
-128.143	81.5158	504
-128.948	82.6479	511
-127.974	82.6479	511
-127.744	83.1332	514
-126.764	83.1332	514
-125.783	83.1332	514
-125.531	83.6184	517
-124.304	83.4566	516
-123.32	83.4566	516
-122.336	83.4566	516
-120.411	82.8097	512
-119.434	82.8097	512
-117.995	82.4862	510
-117.022	82.4862	510
-116.049	82.4862	510
-114.625	82.1627	508
-113.656	82.1627	508
-112.687	82.1627	508
-110.619	81.354	503
-109.659	81.354	503
-108.7	81.354	503
-104.741	79.0897	489
-103.809	79.0897	489
-102.876	79.0897	489
-100.901	78.281	484
-99.9776	78.281	484
-99.0543	78.281	484
-98.3339	78.4428	485
-97.4087	78.4428	485
-96.4836	78.4428	485
-95.5585	78.4428	485
-94.6333	78.4428	485
-93.515	78.281	484
-91.8265	77.6341	480
-90.9109	77.6341	480
-89.0579	76.8254	475
-88.1518	76.8254	475
-87.2458	76.8254	475
-85.6127	76.1784	471
-84.7142	76.1784	471
-83.8158	76.1784	471
-82.2132	75.5315	467
-81.3224	75.5315	467
-80.2594	75.3698	466
-79.3705	75.3698	466
-78.4816	75.3698	466
-77.7592	75.5315	467
-77.3622	76.0167	470
-76.4657	76.0167	470
-75.0868	75.5315	467
-74.196	75.5315	467
-73.3052	75.5315	467
-71.484	74.5611	461
-70.6047	74.5611	461
-69.7253	74.5611	461
-68.846	74.5611	461
-67.9666	74.5611	461
-67.3783	74.8845	463
-66.3516	74.7228	462
-65.4703	74.7228	462
-64.589	74.7228	462
-63.7078	74.7228	462
-62.9625	74.8845	463
-62.0793	74.8845	463
-61.1962	74.8845	463
-60.313	74.8845	463
-59.6866	75.208	465
-58.7996	75.208	465
-57.9126	75.208	465
-57.0256	75.208	465
-55.535	74.3993	460
-54.6575	74.3993	460
-54.2477	75.0463	464
-53.2477	74.8845	463
-52.3645	74.8845	463
-51.3701	74.7228	462
-50.4889	74.7228	462
-49.6076	74.7228	462
-48.7264	74.7228	462
-47.1202	73.5906	455
-46.2523	73.5906	455
-45.3844	73.5906	455
-44.5165	73.5906	455
-43.6486	73.5906	455
-43.4388	74.7228	462
-42.097	73.9141	457
-41.2252	73.9141	457
-40.3535	73.9141	457
-40.2593	75.3698	466
-39.6239	75.855	469
-38.7293	75.855	469
-37.9154	76.0167	470
-37.0188	76.0167	470
-36.1223	76.0167	470
-35.3757	76.3402	472
-34.4754	76.3402	472
-33.8596	76.9871	476
-33.09	77.3106	478
-32.0436	76.9871	476
-31.1357	76.9871	476
-30.1642	76.8254	475
-29.2581	76.8254	475
-28.3521	76.8254	475
-27.0993	75.855	469
-26.2047	75.855	469
-25.3101	75.855	469
-25.0402	77.7958	481
-24.6242	79.4132	491
-23.5429	78.928	488
-22.6121	78.928	488
-21.6812	78.928	488
-20.4952	77.9576	482
-19.5758	77.9576	482
-18.6564	77.9576	482
-17.737	77.9576	482
-16.8176	77.9576	482
-16.0631	78.7662	487
-15.1342	78.7662	487
-14.001	77.6341	480
-13.0854	77.6341	480
-12.1698	77.6341	480
-11.2777	77.7958	481
-10.3602	77.7958	481
-9.48195	78.1193	483
-8.56063	78.1193	483
-7.63931	78.1193	483
-6.718	78.1193	483
-5.80868	78.281	484
-4.88546	78.281	484
-3.96223	78.281	484
-3.03901	78.281	484
-2.11578	78.281	484
-1.19502	78.4428	485
-0.269891	78.4428	485
0.656592	78.6045	486
1.58037	78.4428	485
2.5055	78.4428	485
3.43064	78.4428	485
4.39169	79.0897	489
5.34623	79.4132	491
6.28281	79.4132	491
7.16057	78.7662	487
8.08952	78.7662	487
8.96291	78.281	484
9.88613	78.281	484
10.8094	78.281	484
11.7326	78.281	484
12.6558	78.281	484
13.551	78.1193	483
14.4723	78.1193	483
15.3936	78.1193	483
16.3149	78.1193	483
17.2362	78.1193	483
18.0448	77.6341	480
18.9604	77.6341	480
19.876	77.6341	480
20.8782	77.9576	482
21.7976	77.9576	482
22.8113	78.281	484
23.7345	78.281	484
24.7087	78.4428	485
25.6338	78.4428	485
26.778	79.0897	489
27.7107	79.0897	489
29.0535	80.2219	496
29.9996	80.2219	496
31.1953	80.8688	500
32.1491	80.8688	500
33.5662	82.001	507
34.7377	82.4862	510
32.7696	75.6932	468
33.6623	75.6932	468
34.555	75.6932	468
35.4477	75.6932	468
36.3405	75.6932	468
37.2332	75.6932	468
40.1625	79.7367	493
40.7694	79.0897	489
41.7022	79.0897	489
42.6349	79.0897	489
44.3695	80.5454	498
45.5925	81.0306	501
46.5481	81.0306	501
47.5986	81.1923	502
48.5562	81.1923	502
49.5137	81.1923	502
50.4713	81.1923	502
51.4288	81.1923	502
52.5951	81.5158	504
53.5565	81.5158	504
54.5179	81.5158	504
55.4792	81.5158	504
56.7766	82.001	507
57.7437	82.001	507
58.7108	82.001	507
59.6778	82.001	507
60.6449	82.001	507
61.612	82.001	507
61.962	81.1923	502
62.9195	81.1923	502
63.8771	81.1923	502
64.5764	80.8688	500
65.5301	80.8688	500
66.2179	80.5454	498
67.1678	80.5454	498
68.1178	80.5454	498
69.4838	81.0306	501
70.4394	81.0306	501
72.5351	82.3245	509
73.506	82.3245	509
74.7696	82.6479	511
75.5961	82.4862	510
76.5689	82.4862	510
77.5417	82.4862	510
77.129	81.0306	501
78.0846	81.0306	501
79.0403	81.0306	501
79.9959	81.0306	501
80.9516	81.0306	501
81.9072	81.0306	501
83.0283	81.1923	502
83.9858	81.1923	502
85.1126	81.354	503
86.0721	81.354	503
88.4157	82.6479	511
88.1659	81.5158	504
89.1273	81.5158	504
90.0887	81.5158	504
91.7727	82.1627	508
93.1068	82.4862	510
94.0796	82.4862	510
95.0525	82.4862	510
96.0253	82.4862	510
96.8079	82.3245	509
97.7788	82.3245	509
98.7497	82.3245	509
99.7206	82.3245	509
100.692	82.3245	509
99.8649	80.8688	500
100.819	80.8688	500
101.772	80.8688	500
101.699	80.0601	495
102.643	80.0601	495
103.587	80.0601	495
106.01	81.1923	502
106.967	81.1923	502
107.925	81.1923	502
108.882	81.1923	502
109.84	81.1923	502
110.577	81.0306	501
111.532	81.0306	501
112.488	81.0306	501
113.217	80.8688	500
114.171	80.8688	500
114.434	80.3836	497
115.382	80.3836	497
117.032	80.8688	500
116.806	80.0601	495
117.75	80.0601	495
118.215	79.7367	493
119.155	79.7367	493
120.096	79.7367	493
120.545	79.4132	491
121.482	79.4132	491
122.418	79.4132	491
123.606	79.5749	492
124.545	79.5749	492
123.188	78.1193	483
124.109	78.1193	483
125.03	78.1193	483
402.889	249.885	1545
123.458	76.0167	470
124.355	76.0167	470
125.251	76.0167	470
126.148	76.0167	470
127.044	76.0167	470
127.669	75.855	469
128.563	75.855	469
129.458	75.855	469
130.352	75.855	469
132.087	76.3402	472
132.142	75.855	469
133.036	75.855	469
133.931	75.855	469
135.4	76.1784	471
136.299	76.1784	471
137.78	76.5019	473
138.682	76.5019	473
139.879	76.6637	474
140.784	76.6637	474
141.688	76.6637	474
135.87	72.135	446
136.721	72.135	446
137.572	72.135	446
138.422	72.135	446
139.273	72.135	446
140.124	72.135	446
732.243	251.664	1556
735.211	251.664	1556
738.179	251.664	1556
742.576	252.149	1559
745.55	252.149	1559
748.523	252.149	1559
751.497	252.149	1559
752.535	251.502	1555
755.501	251.502	1555
755.053	250.37	1548
758.006	250.37	1548
760.959	250.37	1548
760.951	249.399	1542
763.892	249.399	1542
765.341	248.914	1539
768.277	248.914	1539
770.211	248.591	1537
773.142	248.591	1537
775.569	248.429	1536
778.499	248.429	1536
781.429	248.429	1536
783.338	248.106	1534
786.264	248.106	1534
789.19	248.106	1534
792.116	248.106	1534
795.042	248.106	1534
797.448	247.944	1533
800.372	247.944	1533
804.344	248.267	1535
807.272	248.267	1535
810.2	248.267	1535
813.128	248.267	1535
814.993	247.944	1533
817.917	247.944	1533
820.306	247.782	1532
823.228	247.782	1532
826.15	247.782	1532
826.367	246.973	1527
829.28	246.973	1527
827.832	245.68	1519
830.73	245.68	1519
831.981	245.194	1516
834.873	245.194	1516
837.764	245.194	1516
840.656	245.194	1516
843.548	245.194	1516
846.44	245.194	1516
849.892	245.356	1517
852.785	245.356	1517
857.371	245.841	1520
860.271	245.841	1520
864.306	246.165	1522
867.209	246.165	1522
868.397	245.68	1519
871.294	245.68	1519
871.314	244.871	1514
874.202	244.871	1514
875.932	244.547	1512
878.816	244.547	1512
881.7	244.547	1512
886.646	238.887	1477
889.464	238.887	1477
892.281	238.887	1477
895.705	239.048	1478
898.524	239.048	1478
903.782	239.695	1482
906.609	239.695	1482
909.436	239.695	1482
914.11	240.18	1485
916.942	240.18	1485
920.394	240.342	1486
921.986	240.019	1484
-203.131	55.8034	341
-202.481	55.8034	341
-201.83	55.8034	341
-201.18	55.8034	341
-200.529	55.8034	341
-199.879	55.8034	341
-198.644	55.6397	340
-197.996	55.6397	340
-197.347	55.6397	340
-196.699	55.6397	340
-196.05	55.6397	340
-195.402	55.6397	340
-194.753	55.6397	340
-194.104	55.6397	340
-193.456	55.6397	340
-192.807	55.6397	340
-192.159	55.6397	340
-191.51	55.6397	340
-190.862	55.6397	340
-190.213	55.6397	340
-189.565	55.6397	340
-188.916	55.6397	340
-188.268	55.6397	340
-147.432	52.2031	319
-146.823	52.2031	319
-146.215	52.2031	319
-145.606	52.2031	319
-144.998	52.2031	319
-144.842	52.3668	320
-144.232	52.3668	320
-143.621	52.3668	320
-143.011	52.3668	320
-142.845	52.5304	321
-142.233	52.5304	321
-142.944	53.0214	324
-143.205	53.3487	326
-142.583	53.3487	326
-143.268	53.8396	329
-143.941	54.3305	332
-143.307	54.3305	332
-143.963	54.8215	335
-143.324	54.8215	335
-143.963	55.3124	338
-144.59	55.8034	341
-143.94	55.8034	341
-144.97	56.4579	345
-145.149	56.7852	347
-144.487	56.7852	347
-144.654	57.1125	349
-143.988	57.1125	349
-144.144	57.4398	351
-143.474	57.4398	351
-143.619	57.7671	353
-142.945	57.7671	353
-143.481	58.258	356
-144.005	58.749	359
-143.321	58.749	359
-143.828	59.2399	362
-143.137	59.2399	362
-143.627	59.7309	365
-144.497	60.3855	369
-143.793	60.3855	369
-144.253	60.8764	372
-143.543	60.8764	372
-144.37	61.531	376
-144.799	62.0219	379
-144.076	62.0219	379
-144.487	62.5129	382
-143.759	62.5129	382
-144.153	63.0038	385
-144.909	63.6584	389
-144.167	63.6584	389
-144.531	64.1493	392
-143.783	64.1493	392
-144.495	64.8039	396
-144.829	65.2948	399
-144.068	65.2948	399
-144.743	65.9494	403
-143.974	65.9494	403
-144.627	66.604	407
-143.851	66.604	407
-144.481	67.2586	411
-145.095	67.9132	415
-144.304	67.9132	415
-144.895	68.5678	419
-144.096	68.5678	419
-144.665	69.2223	423
-145.218	69.8769	427
-144.404	69.8769	427
-144.598	70.3679	430
-145.115	71.0225	434
-145.285	71.5134	437
-144.451	71.5134	437
-144.932	72.168	441
-144.091	72.168	441
-144.549	72.8226	445
-143.7	72.8226	445
-143.814	73.3135	448
-142.96	73.3135	448
-143.374	73.9681	452
-142.512	73.9681	452
-142.59	74.459	455
-142.345	74.7863	457
-141.473	74.7863	457
-141.525	75.2773	460
-140.647	75.2773	460
-140.377	75.6045	462
-139.496	75.6045	462
-138.615	75.6045	462
-137.734	75.6045	462
-138.926	76.7501	469
-138.914	77.241	472
-138.014	77.241	472
-137.113	77.241	472
-136.213	77.241	472
-135.599	77.4047	473
-134.697	77.4047	473
-134.078	77.5683	474
-133.174	77.5683	474
-131.711	77.241	472
-130.811	77.241	472
-129.911	77.241	472
-129.284	77.4047	473
-128.382	77.4047	473
-128.288	77.8956	476
-130.056	79.5321	486
-131.254	80.8412	494
-130.312	80.8412	494
-129.632	81.0049	495
-128.688	81.0049	495
-128.259	81.3322	497
-127.311	81.3322	497
-127.38	81.9867	501
-126.425	81.9867	501
-126.471	82.6413	505
-125.508	82.6413	505
-125.038	82.9686	507
-124.07	82.9686	507
-123.346	83.1323	508
-122.859	83.4596	510
-121.886	83.4596	510
-121.388	83.7869	512
-119.47	83.1323	508
-118.501	83.1323	508
-117.532	83.1323	508
-116.563	83.1323	508
-115.594	83.1323	508
-113.948	82.6413	505
-112.985	82.6413	505
-112.022	82.6413	505
-110.619	82.314	503
-106.389	79.8594	488
-105.458	79.8594	488
-104.527	79.8594	488
-101.686	78.3865	479
-100.772	78.3865	479
-99.8584	78.3865	479
-98.9447	78.3865	479
-98.2357	78.5502	480
-96.9146	78.2229	478
-95.802	78.0592	477
-94.8921	78.0592	477
-93.9822	78.0592	477
-94.6333	79.3684	485
-89.8439	76.0955	465
-88.957	76.0955	465
-88.07	76.0955	465
-86.6205	75.6045	462
-85.7393	75.6045	462
-84.858	75.6045	462
-85.6127	77.0774	471
-84.7142	77.0774	471
-83.8158	77.0774	471
-82.2132	76.4228	467
-81.3224	76.4228	467
-80.2594	76.2591	466
-79.3705	76.2591	466
-78.4816	76.2591	466
-77.7592	76.4228	467
-76.8684	76.4228	467
-76.4657	76.9137	470
-75.0868	76.4228	467
-74.196	76.4228	467
-73.3052	76.4228	467
-71.484	75.4409	461
-70.6047	75.4409	461
-69.7253	75.4409	461
-68.846	75.4409	461
-67.9666	75.4409	461
-67.3783	75.7682	463
-66.3516	75.6045	462
-65.4703	75.6045	462
-64.589	75.6045	462
-63.7078	75.6045	462
-62.9625	75.7682	463
-62.0793	75.7682	463
-61.1962	75.7682	463
-60.313	75.7682	463
-59.6866	76.0955	465
-58.7996	76.0955	465
-57.9126	76.0955	465
-57.0256	76.0955	465
-55.535	75.2773	460
-54.6575	75.2773	460
-54.2477	75.9318	464
-53.2477	75.7682	463
-52.3645	75.7682	463
-51.3701	75.6045	462
-50.4889	75.6045	462
-49.6076	75.6045	462
-48.7264	75.6045	462
-47.1202	74.459	455
-46.2523	74.459	455
-45.3844	74.459	455
-44.5165	74.459	455
-43.6486	74.459	455
-43.4388	75.6045	462
-42.097	74.7863	457
-41.2252	74.7863	457
-40.3535	74.7863	457
-40.2593	76.2591	466
-39.6239	76.7501	469
-38.7293	76.7501	469
-37.9154	76.9137	470
-37.0188	76.9137	470
-36.1223	76.9137	470
-35.3757	77.241	472
-34.4754	77.241	472
-33.8596	77.8956	476
-33.09	78.2229	478
-32.0436	77.8956	476
-31.1357	77.8956	476
-30.1642	77.7319	475
-29.2581	77.7319	475
-28.3521	77.7319	475
-27.0993	76.7501	469
-26.2047	76.7501	469
-25.3101	76.7501	469
-25.0402	78.7138	481
-24.6242	80.3503	491
-23.5429	79.8594	488
-22.6121	79.8594	488
-21.6812	79.8594	488
-20.4952	78.8775	482
-19.5758	78.8775	482
-18.6564	78.8775	482
-17.737	78.8775	482
-16.8176	78.8775	482
-16.0631	79.6957	487
-15.1342	79.6957	487
-14.001	78.5502	480
-13.0854	78.5502	480
-12.1698	78.5502	480
-11.2777	78.7138	481
-10.3602	78.7138	481
-9.48195	79.0411	483
-8.56063	79.0411	483
-7.63931	79.0411	483
-6.718	79.0411	483
-5.80868	79.2048	484
-4.88546	79.2048	484
-3.96223	79.2048	484
-3.03901	79.2048	484
-2.11578	79.2048	484
-1.19502	79.3684	485
-0.269891	79.3684	485
0.656592	79.5321	486
1.58037	79.3684	485
2.5055	79.3684	485
3.43064	79.3684	485
4.39169	80.023	489
5.34623	80.3503	491
6.28281	80.3503	491
7.16057	79.6957	487
8.08952	79.6957	487
8.96291	79.2048	484
9.88613	79.2048	484
10.8094	79.2048	484
11.7326	79.2048	484
12.6558	79.2048	484
13.551	79.0411	483
14.4723	79.0411	483
15.3936	79.0411	483
16.3149	79.0411	483
17.2362	79.0411	483
18.0448	78.5502	480
18.9604	78.5502	480
19.876	78.5502	480
20.8782	78.8775	482
21.7976	78.8775	482
22.8113	79.2048	484
23.7345	79.2048	484
24.7087	79.3684	485
25.6338	79.3684	485
26.778	80.023	489
27.7107	80.023	489
29.0535	81.1685	496
29.9996	81.1685	496
31.1953	81.8231	500
32.1491	81.8231	500
32.7696	76.5864	468
33.6623	76.5864	468
34.555	76.5864	468
35.4477	76.5864	468
36.3405	76.5864	468
37.2332	76.5864	468
40.1625	80.6776	493
40.7694	80.023	489
41.7022	80.023	489
42.6349	80.023	489
44.3695	81.4958	498
45.5925	81.9867	501
46.5481	81.9867	501
47.5986	82.1504	502
48.5562	82.1504	502
49.5137	82.1504	502
50.4713	82.1504	502
51.4288	82.1504	502
52.5951	82.4777	504
53.5565	82.4777	504
54.5179	82.4777	504
55.4792	82.4777	504
56.7766	82.9686	507
57.7437	82.9686	507
58.7108	82.9686	507
59.6778	82.9686	507
60.6449	82.9686	507
61.612	82.9686	507
61.962	82.1504	502
62.9195	82.1504	502
63.8771	82.1504	502
64.5764	81.8231	500
65.5301	81.8231	500
66.2179	81.4958	498
67.1678	81.4958	498
68.1178	81.4958	498
69.4838	81.9867	501
70.4394	81.9867	501
72.5351	83.2959	509
73.506	83.2959	509
74.7696	83.6232	511
75.5961	83.4596	510
76.5689	83.4596	510
77.5417	83.4596	510
77.129	81.9867	501
78.0846	81.9867	501
79.0403	81.9867	501
79.9959	81.9867	501
80.9516	81.9867	501
81.9072	81.9867	501
83.0283	82.1504	502
83.9858	82.1504	502
85.1126	82.314	503
86.0721	82.314	503
88.4157	83.6232	511
88.1659	82.4777	504
89.1273	82.4777	504
90.0887	82.4777	504
91.7727	83.1323	508
93.1068	83.4596	510
94.0796	83.4596	510
95.0525	83.4596	510
96.0253	83.4596	510
96.8079	83.2959	509
97.7788	83.2959	509
98.7497	83.2959	509
99.7206	83.2959	509
100.692	83.2959	509
99.8649	81.8231	500
100.819	81.8231	500
101.772	81.8231	500
101.699	81.0049	495
102.643	81.0049	495
103.587	81.0049	495
106.01	82.1504	502
106.967	82.1504	502
107.925	82.1504	502
108.882	82.1504	502
109.84	82.1504	502
110.577	81.9867	501
111.532	81.9867	501
112.488	81.9867	501
113.217	81.8231	500
114.171	81.8231	500
114.434	81.3322	497
115.382	81.3322	497
116.33	81.3322	497
116.57	80.8412	494
117.512	80.8412	494
117.975	80.5139	492
118.914	80.5139	492
119.852	80.5139	492
120.791	80.5139	492
119.75	79.2048	484
120.673	79.2048	484
120.591	78.5502	480
121.507	78.5502	480
122.423	78.5502	480
121.406	76.7501	469
122.301	76.7501	469
122.407	76.2591	466
123.296	76.2591	466
124.185	76.2591	466
124.806	76.0955	465
125.693	76.0955	465
126.035	75.7682	463
126.918	75.7682	463
127.802	75.7682	463
128.685	75.7682	463
129.568	75.7682	463
131.296	76.2591	466
133.036	76.7501	469
133.931	76.7501	469
135.4	77.0774	471
136.299	77.0774	471
137.78	77.4047	473
138.682	77.4047	473
139.879	77.5683	474
140.784	77.5683	474
141.688	77.5683	474
135.87	72.9862	446
136.721	72.9862	446
137.572	72.9862	446
138.422	72.9862	446
139.273	72.9862	446
140.124	72.9862	446
732.243	254.633	1556
735.211	254.633	1556
738.179	254.633	1556
742.576	255.124	1559
745.55	255.124	1559
748.523	255.124	1559
751.497	255.124	1559
752.535	254.47	1555
755.501	254.47	1555
755.053	253.324	1548
758.006	253.324	1548
760.959	253.324	1548
760.951	252.342	1542
763.892	252.342	1542
765.341	251.852	1539
768.277	251.852	1539
770.211	251.524	1537
773.142	251.524	1537
775.569	251.361	1536
778.499	251.361	1536
781.429	251.361	1536
783.338	251.033	1534
786.264	251.033	1534
789.19	251.033	1534
792.116	251.033	1534
795.042	251.033	1534
798.488	251.197	1535
801.416	251.197	1535
805.916	251.688	1538
808.85	251.688	1538
811.784	251.688	1538
815.777	252.015	1540
818.714	252.015	1540
822.719	252.342	1542
825.125	252.179	1541
828.064	252.179	1541
831.004	252.179	1541
830.696	251.197	1535
833.624	251.197	1535
831.647	249.724	1526
834.558	249.724	1526
834.725	248.906	1521
837.626	248.906	1521
840.528	248.906	1521
842.874	248.742	1520
845.774	248.742	1520
848.673	248.742	1520
852.693	249.07	1522
855.596	249.07	1522
859.627	249.397	1524
862.534	249.397	1524
866.009	249.56	1525
868.918	249.56	1525
868.969	248.742	1520
871.868	248.742	1520
871.314	247.76	1514
874.202	247.76	1514
875.932	247.433	1512
878.816	247.433	1512
881.7	247.433	1512
884.591	242.687	1483
887.419	242.687	1483
886.646	241.705	1477
889.464	241.705	1477
892.281	241.705	1477
895.705	241.869	1478
898.524	241.869	1478
903.782	242.524	1482
906.609	242.524	1482
910.05	242.687	1483
912.879	242.687	1483
915.708	242.687	1483
918.536	242.687	1483
918.88	242.033	1479
-203.131	56.4542	341
-202.481	56.4542	341
-201.83	56.4542	341
-201.18	56.4542	341
-200.529	56.4542	341
-199.879	56.4542	341
-198.644	56.2886	340
-197.996	56.2886	340
-197.347	56.2886	340
-196.12	56.1231	339
-195.473	56.1231	339
-194.827	56.1231	339
-194.18	56.1231	339
-193.534	56.1231	339
-192.887	56.1231	339
-192.24	56.1231	339
-191.594	56.1231	339
-191.51	56.2886	340
-190.862	56.2886	340
-190.213	56.2886	340
-189.565	56.2886	340
-188.916	56.2886	340
-188.268	56.2886	340
-147.432	52.812	319
-146.823	52.812	319
-146.215	52.812	319
-145.606	52.812	319
-144.998	52.812	319
-144.842	52.9775	320
-144.232	52.9775	320
-143.621	52.9775	320
-143.011	52.9775	320
-142.845	53.1431	321
-142.233	53.1431	321
-142.503	53.4742	323
-143.205	53.9708	326
-142.583	53.9708	326
-143.268	54.4675	329
-143.941	54.9642	332
-143.307	54.9642	332
-143.963	55.4608	335
-143.324	55.4608	335
-143.963	55.9575	338
-144.59	56.4542	341
-143.94	56.4542	341
-144.55	56.9508	344
-145.149	57.4475	347
-144.487	57.4475	347
-144.654	57.7786	349
-143.988	57.7786	349
-144.144	58.1097	351
-143.474	58.1097	351
-143.619	58.4408	353
-142.945	58.4408	353
-143.481	58.9375	356
-144.005	59.4342	359
-143.321	59.4342	359
-143.828	59.9308	362
-143.137	59.9308	362
-143.627	60.4275	365
-144.497	61.0897	369
-143.793	61.0897	369
-144.253	61.5864	372
-143.543	61.5864	372
-144.37	62.2486	376
-144.799	62.7453	379
-144.076	62.7453	379
-144.487	63.2419	382
-143.759	63.2419	382
-144.153	63.7386	385
-144.909	64.4008	389
-144.167	64.4008	389
-144.531	64.8975	392
-143.783	64.8975	392
-144.495	65.5597	396
-144.829	66.0563	399
-144.068	66.0563	399
-144.743	66.7186	403
-143.974	66.7186	403
-144.627	67.3808	407
-143.851	67.3808	407
-144.481	68.043	411
-145.095	68.7052	415
-144.304	68.7052	415
-144.895	69.3674	419
-144.096	69.3674	419
-144.665	70.0297	423
-145.218	70.6919	427
-144.404	70.6919	427
-144.598	71.1885	430
-145.115	71.8508	434
-145.285	72.3474	437
-144.451	72.3474	437
-144.932	73.0096	441
-144.091	73.0096	441
-144.549	73.6719	445
-143.7	73.6719	445
-143.814	74.1685	448
-142.96	74.1685	448
-143.374	74.8307	452
-142.512	74.8307	452
-142.59	75.3274	455
-142.345	75.6585	457
-141.473	75.6585	457
-141.525	76.1552	460
-140.647	76.1552	460
-140.377	76.4863	462
-139.496	76.4863	462
-138.615	76.4863	462
-137.734	76.4863	462
-138.926	77.6452	469
-138.914	78.1418	472
-138.014	78.1418	472
-137.113	78.1418	472
-136.213	78.1418	472
-135.599	78.3074	473
-134.697	78.3074	473
-134.078	78.473	474
-133.174	78.473	474
-131.711	78.1418	472
-130.811	78.1418	472
-129.911	78.1418	472
-129.284	78.3074	473
-128.382	78.3074	473
-128.288	78.8041	476
-130.056	80.4596	486
-131.254	81.784	494
-130.312	81.784	494
-129.632	81.9496	495
-128.688	81.9496	495
-128.259	82.2807	497
-127.311	82.2807	497
-127.38	82.9429	501
-126.425	82.9429	501
-126.471	83.6051	505
-125.508	83.6051	505
-125.038	83.9363	507
-124.07	83.9363	507
-123.346	84.1018	508
-122.859	84.4329	510
-121.886	84.4329	510
-121.388	84.764	512
-119.47	84.1018	508
-118.501	84.1018	508
-117.532	84.1018	508
-116.563	84.1018	508
-115.594	84.1018	508
-113.948	83.6051	505
-112.985	83.6051	505
-112.022	83.6051	505
-106.389	80.7907	488
-105.458	80.7907	488
-104.527	80.7907	488
-101.686	79.3007	479
-100.772	79.3007	479
-99.8584	79.3007	479
-98.9447	79.3007	479
-98.2357	79.4663	480
-96.9146	79.1352	478
-95.802	78.9696	477
-94.8921	78.9696	477
-93.9822	78.9696	477
-89.8439	76.983	465
-88.957	76.983	465
-88.07	76.983	465
-86.6205	76.4863	462
-85.7393	76.4863	462
-84.858	76.4863	462
-84.1585	76.6518	463
-83.2753	76.6518	463
-82.7481	76.983	465
-81.8611	76.983	465
-80.9741	76.983	465
-80.0871	76.983	465
-79.2002	76.983	465
-78.3132	76.983	465
-76.9267	76.4863	462
-76.0454	76.4863	462
-75.1641	76.4863	462
-73.6397	75.8241	458
-72.2895	75.3274	455
-71.4216	75.3274	455
-70.5537	75.3274	455
-69.6858	75.3274	455
-68.8179	75.3274	455
-67.95	75.3274	455
-67.2295	75.493	456
-66.3597	75.493	456
-65.7771	75.8241	458
-64.9035	75.8241	458
-64.0298	75.8241	458
-62.8804	75.493	456
-62.0106	75.493	456
-61.1408	75.493	456
-60.271	75.493	456
-59.4011	75.493	456
-58.5313	75.493	456
-58.1673	76.1552	460
-56.5426	75.1619	454
-55.6766	75.1619	454
-55.535	76.1552	460
-54.6575	76.1552	460
-54.2477	76.8174	464
-53.2477	76.6518	463
-52.3645	76.6518	463
-51.3701	76.4863	462
-50.4889	76.4863	462
-49.6076	76.4863	462
-48.7264	76.4863	462
-47.1202	75.3274	455
-46.2523	75.3274	455
-45.3844	75.3274	455
-44.5165	75.3274	455
-43.6486	75.3274	455
-43.4388	76.4863	462
-42.097	75.6585	457
-41.2252	75.6585	457
-40.3535	75.6585	457
-40.2593	77.1485	466
-39.6239	77.6452	469
-38.7293	77.6452	469
-37.9154	77.8107	470
-37.0188	77.8107	470
-36.1223	77.8107	470
-35.3757	78.1418	472
-34.4754	78.1418	472
-33.8596	78.8041	476
-32.9516	78.8041	476
-32.0436	78.8041	476
-30.547	77.3141	467
-29.6562	77.3141	467
-28.519	76.6518	463
-27.6358	76.6518	463
-26.7527	76.6518	463
-25.8695	76.6518	463
-24.9863	76.6518	463
-24.0511	76.4863	462
-23.1698	76.4863	462
-22.2886	76.4863	462
-21.639	77.3141	467
-20.7482	77.3141	467
-20.07	78.1418	472
-19.1291	77.9763	471
-18.2306	77.9763	471
-17.2954	77.8107	470
-16.3989	77.8107	470
-15.5024	77.8107	470
-14.7612	78.6385	475
-13.8552	78.6385	475
-12.9491	78.6385	475
-12.0431	78.6385	475
-11.137	78.6385	475
-10.231	78.6385	475
-9.32489	78.6385	475
-8.50746	79.4663	480
-7.60768	79.6318	481
-6.69018	79.6318	481
-5.77268	79.6318	481
-4.86527	79.7974	482
-3.94586	79.7974	482
-3.02645	79.7974	482
-2.10704	79.7974	482
-1.18763	79.7974	482
-0.268222	79.7974	482
0.652539	79.9629	483
1.57386	79.9629	483
2.49517	79.9629	483
3.41649	79.9629	483
4.32882	79.7974	482
5.24823	79.7974	482
6.15485	79.6318	481
7.07235	79.6318	481
7.9068	78.8041	476
8.81476	78.8041	476
9.72272	78.8041	476
10.6307	78.8041	476
11.5387	78.8041	476
12.4205	78.6385	475
13.3265	78.6385	475
14.2026	78.473	474
15.1068	78.473	474
16.0109	78.473	474
16.9151	78.473	474
17.8192	78.473	474
18.7234	78.473	474
19.6275	78.473	474
20.5317	78.473	474
21.481	78.6385	475
22.3871	78.6385	475
23.2932	78.6385	475
24.1483	78.473	474
25.0524	78.473	474
25.9566	78.473	474
26.7474	78.1418	472
27.6477	78.1418	472
28.548	78.1418	472
29.7603	78.9696	477
30.6702	78.9696	477
30.9842	77.4796	468
31.8769	77.4796	468
32.7696	77.4796	468
33.6623	77.4796	468
34.555	77.4796	468
35.4477	77.4796	468
36.3405	77.4796	468
37.2332	77.4796	468
38.2888	77.8107	470
39.1853	77.8107	470
41.1052	79.7974	482
42.0246	79.7974	482
42.944	79.7974	482
44.0454	80.1285	484
44.9687	80.1285	484
46.8401	81.784	494
48.1693	82.4463	498
48.7247	81.784	494
49.667	81.784	494
50.6093	81.784	494
51.5516	81.784	494
52.6001	81.9496	495
53.328	81.6185	493
54.2684	81.6185	493
55.2088	81.6185	493
56.3769	81.9496	495
57.3211	81.9496	495
59.4424	83.6051	505
60.2861	83.4396	504
61.2475	83.4396	504
61.8386	82.9429	501
62.7942	82.9429	501
63.7499	82.9429	501
63.9306	81.9496	495
64.8748	81.9496	495
65.819	81.9496	495
66.4935	81.6185	493
67.4339	81.6185	493
68.3742	81.6185	493
69.3146	81.6185	493
70.255	81.6185	493
71.3398	81.784	494
72.2821	81.784	494
72.6315	81.1218	490
73.5662	81.1218	490
74.3488	80.9563	489
75.2816	80.9563	489
76.2143	80.9563	489
77.3049	81.1218	490
78.2395	81.1218	490
79.1742	81.1218	490
80.4359	81.4529	492
81.3743	81.4529	492
83.9858	83.1085	502
85.1126	83.274	503
86.0721	83.274	503
88.4157	84.5985	511
88.1659	83.4396	504
89.1273	83.4396	504
90.0887	83.4396	504
91.7727	84.1018	508
93.1068	84.4329	510
94.0796	84.4329	510
95.0525	84.4329	510
96.0253	84.4329	510
96.8079	84.2674	509
97.7788	84.2674	509
98.7497	84.2674	509
99.7206	84.2674	509
100.692	84.2674	509
