-667.258	-327.888	1299
-661.71	-326.374	1293
-659.244	-326.374	1293
-656.777	-326.374	1293
-653.299	-325.869	1291
-650.836	-325.869	1291
-648.374	-325.869	1291
-645.911	-325.869	1291
-643.448	-325.869	1291
-640.986	-325.869	1291
-639.513	-326.374	1293
-637.046	-326.374	1293
-635.561	-326.879	1295
-633.091	-326.879	1295
-631.595	-327.384	1297
-629.121	-327.384	1297
-626.647	-327.384	1297
-624.654	-327.636	1298
-622.178	-327.636	1298
-619.702	-327.636	1298
-616.751	-327.384	1297
-614.277	-327.384	1297
-611.803	-327.384	1297
-608.859	-327.131	1296
-606.387	-327.131	1296
-602.517	-326.374	1293
-600.05	-326.374	1293
-596.198	-325.617	1290
-593.737	-325.617	1290
-589.443	-324.607	1286
-586.99	-324.607	1286
-584.537	-324.607	1286
-580.726	-323.85	1283
-578.278	-323.85	1283
-574.036	-322.84	1279
-571.596	-322.84	1279
-567.822	-322.083	1276
-565.388	-322.083	1276
-562.954	-322.083	1276
-558.323	-320.821	1271
-555.899	-320.821	1271
-552.604	-320.316	1269
-550.183	-320.316	1269
-547.762	-320.316	1269
-545.342	-320.316	1269
-542.921	-320.316	1269
-254.83	-168.362	667
-253.558	-168.362	667
-252.285	-168.362	667
-250.637	-168.109	666
-249.366	-168.109	666
-247.724	-167.857	665
-246.455	-167.857	665
-245.187	-167.857	665
-245.385	-168.866	669
-244.109	-168.866	669
-235.574	-163.818	649
-234.336	-163.818	649
-233.098	-163.818	649
-231.145	-163.313	647
-229.911	-163.313	647
-228.677	-163.313	647
-223.576	-160.537	636
-222.363	-160.537	636
-219.063	-159.022	630
-217.861	-159.022	630
-216.66	-159.022	630
-214.774	-158.517	628
-213.576	-158.517	628
-212.378	-158.517	628
-212.189	-159.275	631
-210.986	-159.275	631
-239.038	-181.487	719
-240.311	-183.506	727
-238.924	-183.506	727
-237.538	-183.506	727
-236.151	-183.506	727
-243.806	-190.574	755
-242.366	-190.574	755
-240.607	-190.322	754
-239.168	-190.322	754
-237.73	-190.322	754
-235.979	-190.069	753
-234.542	-190.069	753
-233.106	-190.069	753
-283.049	-232.223	920
-279.154	-230.456	913
-277.412	-230.456	913
-275.067	-229.951	911
-273.329	-229.951	911
-271.592	-229.951	911
-268.669	-228.941	907
-266.939	-228.941	907
-265.209	-228.941	907
-150.209	-173.915	689
-148.895	-173.915	689
-147.58	-173.915	689
-146.266	-173.915	689
-144.952	-173.915	689
-136.389	-176.439	699
-135.056	-176.439	699
-133.722	-176.439	699
-132.797	-182.497	723
-131.418	-182.497	723
-130.039	-182.497	723
-128.838	-182.749	724
-127.457	-182.749	724
-125.902	-182.497	723
-124.523	-182.497	723
-129.956	-192.593	763
-127.996	-191.836	760
-126.213	-191.331	758
-124.767	-191.331	758
-123.321	-191.331	758
-121.875	-191.331	758
-120.43	-191.331	758
-119.141	-191.584	759
-117.693	-191.584	759
-116.705	-192.341	762
-115.251	-192.341	762
-114.096	-192.846	764
-112.639	-192.846	764
-111.182	-192.846	764
-111.448	-195.875	776
-109.967	-195.875	776
-108.487	-195.875	776
-107.007	-195.875	776
-105.799	-196.38	778
-104.181	-196.127	777
-102.699	-196.127	777
-179.246	-347.324	1376
-176.621	-347.324	1376
-174.376	-348.082	1379
-171.745	-348.082	1379
-169.605	-349.091	1383
-166.967	-349.091	1383
-164.567	-349.596	1385
-161.925	-349.596	1385
-159.628	-350.353	1388
-156.98	-350.353	1388
-154.333	-350.353	1388
-152.013	-351.111	1391
-149.36	-351.111	1391
-147.128	-352.12	1395
-144.467	-352.12	1395
-142.315	-353.382	1400
-140.243	-354.897	1406
-137.561	-354.897	1406
-135.454	-356.411	1412
-132.761	-356.411	1412
-130.068	-356.411	1412
-127.645	-357.169	1415
-124.946	-357.169	1415
-122.247	-357.169	1415
-119.379	-356.664	1413
-116.683	-356.664	1413
-113.988	-356.664	1413
-111.214	-356.411	1412
-108.521	-356.411	1412
-105.827	-356.411	1412
-103.134	-356.411	1412
-100.441	-356.411	1412
-97.8164	-356.664	1413
-95.1211	-356.664	1413
-92.4913	-356.916	1414
-89.7941	-356.916	1414
-87.1585	-357.169	1415
-84.4594	-357.169	1415
-81.7603	-357.169	1415
-79.1729	-357.674	1417
-76.47	-357.674	1417
-74.0274	-358.936	1422
-71.315	-358.936	1422
-68.9402	-360.703	1429
-66.2144	-360.703	1429
-63.7996	-362.469	1436
-61.0605	-362.469	1436
-58.3213	-362.469	1436
-55.6983	-363.227	1439
-52.9534	-363.227	1439
-50.2434	-363.479	1440
-47.3977	-362.722	1437
-44.6566	-362.722	1437
-41.8281	-361.965	1434
-39.0927	-361.965	1434
-36.3574	-361.965	1434
-33.5048	-360.703	1429
-30.779	-360.703	1429
-27.9747	-359.693	1425
-25.2388	-359.44	1424
-22.5225	-359.44	1424
-19.8063	-359.44	1424
-17.114	-359.945	1426
-14.3939	-359.945	1426
-11.6738	-359.945	1426
-8.98516	-361.207	1431
-6.25555	-361.207	1431
-3.54318	-362.974	1438
-0.800213	-362.974	1438
1.94411	-363.227	1439
4.68898	-363.227	1439
8.3534	-408.157	1617
11.4378	-408.157	1617
14.5222	-408.157	1617
17.6393	-408.914	1620
20.7294	-408.914	1620
23.8196	-408.914	1620
26.9097	-408.914	1620
30.0554	-409.671	1623
33.1512	-409.671	1623
36.2471	-409.671	1623
78.9515	-406.39	1610
82.0226	-406.39	1610
85.0408	-406.137	1609
88.1099	-406.137	1609
91.1224	-405.885	1608
94.1897	-405.885	1608
97.2569	-405.885	1608
100.387	-406.137	1609
103.456	-406.137	1609
106.525	-406.137	1609
109.662	-406.39	1610
112.733	-406.39	1610
115.876	-406.642	1611
118.949	-406.642	1611
122.022	-406.642	1611
124.94	-406.137	1609
128.009	-406.137	1609
131.078	-406.137	1609
133.98	-405.633	1607
137.046	-405.633	1607
139.937	-405.128	1605
142.82	-404.623	1603
145.878	-404.623	1603
148.935	-404.623	1603
151.993	-404.623	1603
155.051	-404.623	1603
158.109	-404.623	1603
161.367	-405.128	1605
164.429	-405.128	1605
167.699	-405.633	1607
170.764	-405.633	1607
174.154	-406.39	1610
177.225	-406.39	1610
180.632	-407.147	1613
183.709	-407.147	1613
186.786	-407.147	1613
190.216	-407.904	1616
193.298	-407.904	1616
196.502	-408.157	1617
199.587	-408.157	1617
202.796	-408.409	1618
205.883	-408.409	1618
225.94	-405.633	1607
229.006	-405.633	1607
232.071	-405.633	1607
234.99	-405.38	1606
238.054	-405.38	1606
240.516	-404.371	1602
243.572	-404.371	1602
245.704	-402.856	1596
248.749	-402.856	1596
251.793	-402.856	1596
254.678	-402.604	1595
257.72	-402.604	1595
260.763	-402.604	1595
229.11	-341.771	1354
231.693	-341.771	1354
234.276	-341.771	1354
236.859	-341.771	1354
238.911	-341.014	1351
240.594	-339.752	1346
243.161	-339.752	1346
245.729	-339.752	1346
247.743	-338.995	1343
250.305	-338.995	1343
252.49	-338.49	1341
255.048	-338.49	1341
256.645	-337.228	1336
259.194	-337.228	1336
261.742	-337.228	1336
264.291	-337.228	1336
266.839	-337.228	1336
269.186	-336.975	1335
271.732	-336.975	1335
273.457	-335.966	1331
275.996	-335.966	1331
278.535	-335.966	1331
279.384	-333.946	1323
281.908	-333.946	1323
283.141	-332.432	1317
285.654	-332.432	1317
287.072	-331.17	1312
289.574	-331.17	1312
292.077	-331.17	1312
294.131	-330.665	1310
296.629	-330.665	1310
299.128	-330.665	1310
301.627	-330.665	1310
304.126	-330.665	1310
306.625	-330.665	1310
309.123	-330.665	1310
311.622	-330.665	1310
313.641	-330.16	1308
316.136	-330.16	1308
317.657	-329.151	1304
320.144	-329.151	1304
320.9	-327.384	1297
323.374	-327.384	1297
325.848	-327.384	1297
326.044	-325.112	1288
328.5	-325.112	1288
328.645	-322.84	1279
331.084	-322.84	1279
333.524	-322.84	1279
335.176	-322.083	1276
337.61	-322.083	1276
340.044	-322.083	1276
342.746	-322.335	1277
345.182	-322.335	1277
348.162	-322.84	1279
350.602	-322.84	1279
353.594	-323.345	1281
356.037	-323.345	1281
358.481	-323.345	1281
360.924	-323.345	1281
363.084	-323.093	1280
365.525	-323.093	1280
367.68	-322.84	1279
370.119	-322.84	1279
372.85	-323.093	1280
375.292	-323.093	1280
377.438	-322.84	1279
379.878	-322.84	1279
381.421	-322.083	1276
383.855	-322.083	1276
384.775	-320.821	1271
387.199	-320.821	1271
388.398	-319.811	1267
390.815	-319.811	1267
393.231	-319.811	1267
395.648	-319.811	1267
398.379	-320.064	1268
400.798	-320.064	1268
404.17	-320.821	1271
406.595	-320.821	1271
410.628	-322.083	1276
413.062	-322.083	1276
415.822	-322.335	1277
418.258	-322.335	1277
420.694	-322.335	1277
469.849	-357.926	1418
472.554	-357.926	1418
474.924	-357.674	1417
477.627	-357.674	1417
480.33	-357.674	1417
482.351	-357.169	1415
485.05	-357.169	1415
487.749	-357.169	1415
490.795	-357.421	1416
493.496	-357.421	1416
497.248	-358.178	1419
499.955	-358.178	1419
503.724	-358.936	1422
506.436	-358.936	1422
509.149	-358.936	1422
512.221	-359.188	1423
514.574	-358.936	1422
517.286	-358.936	1422
519.267	-358.431	1420
521.976	-358.431	1420
524.685	-358.431	1420
525.908	-357.421	1416
526.369	-355.907	1410
529.058	-355.907	1410
528.354	-353.635	1401
531.026	-353.635	1401
533.699	-353.635	1401
533.691	-351.868	1394
536.35	-351.868	1394
536.302	-350.101	1387
538.948	-350.101	1387
540.032	-349.091	1383
542.67	-349.091	1383
545.308	-349.091	1383
546.361	-348.082	1379
548.992	-348.082	1379
549.622	-346.82	1374
552.243	-346.82	1374
552.845	-345.558	1369
555.456	-345.558	1369
558.067	-345.558	1369
559.45	-344.8	1366
562.056	-344.8	1366
563.835	-344.296	1364
566.436	-344.296	1364
569.038	-344.296	1364
571.64	-344.296	1364
573.4	-343.791	1362
575.998	-343.791	1362
577.746	-343.286	1360
580.34	-343.286	1360
581.22	-342.276	1356
583.807	-342.276	1356
585.961	-342.024	1355
588.545	-342.024	1355
590.694	-341.771	1354
593.276	-341.771	1354
595.859	-341.771	1354
597.558	-341.267	1352
600.137	-341.267	1352
601.824	-340.762	1350
604.399	-340.762	1350
605.626	-340.004	1347
608.195	-340.004	1347
610.764	-340.004	1347
612.878	-339.752	1346
615.446	-339.752	1346
618.013	-339.752	1346
553.704	-301.89	1196
555.985	-301.89	1196
558.267	-301.89	1196
560.548	-301.89	1196
562.829	-301.89	1196
565.111	-301.89	1196
567.392	-301.89	1196
569.673	-301.89	1196
617.864	-326.122	1292
620.329	-326.122	1292
622.793	-326.122	1292
631.065	-329.151	1304
633.066	-328.898	1303
633.601	-327.888	1299
636.079	-327.888	1299
639.54	-328.393	1301
642.021	-328.393	1301
644.503	-328.393	1301
648.974	-329.403	1305
651.463	-329.403	1305
653.952	-329.403	1305
656.442	-329.403	1305
687.207	-343.538	1361
689.803	-343.538	1361
693.925	-344.296	1364
696.527	-344.296	1364
699.129	-344.296	1364
701.731	-344.296	1364
733.921	-330.665	1310
736.42	-330.665	1310
738.919	-330.665	1310
741.417	-330.665	1310
743.916	-330.665	1310
746.985	-330.917	1311
749.486	-330.917	1311
752.56	-331.17	1312
755.063	-331.17	1312
757.565	-331.17	1312
761.226	-331.675	1314
763.733	-331.675	1314
767.989	-332.432	1317
770.501	-332.432	1317
773.013	-332.432	1317
776.703	-332.937	1319
779.219	-332.937	1319
782.92	-333.442	1321
785.44	-333.442	1321
787.363	-333.189	1320
789.881	-333.189	1320
788.797	-331.675	1314
791.304	-331.675	1314
793.81	-331.675	1314
791.468	-329.655	1306
793.959	-329.655	1306
795.231	-329.151	1304
797.718	-329.151	1304
800.206	-329.151	1304
-726.745	-305.619	1220
-727.387	-306.872	1225
-725.05	-306.872	1225
-725.073	-307.874	1229
-722.729	-307.874	1229
-722.729	-308.876	1233
-720.378	-308.876	1233
-720.355	-309.878	1237
-717.995	-309.878	1237
-715.636	-309.878	1237
-713.276	-309.878	1237
-713.79	-311.13	1242
-711.421	-311.13	1242
-711.907	-312.383	1247
-709.528	-312.383	1247
-709.985	-313.635	1252
-707.597	-313.635	1252
-708.025	-314.888	1257
-705.627	-314.888	1257
-706.027	-316.14	1262
-703.619	-316.14	1262
-701.212	-316.14	1262
-698.805	-316.14	1262
-699.708	-317.644	1268
-697.29	-317.644	1268
-698.707	-319.397	1275
-696.275	-319.397	1275
-697.108	-320.9	1281
-694.665	-320.9	1281
-695.463	-322.403	1287
-693.008	-322.403	1287
-693.236	-323.656	1292
-690.772	-323.656	1292
-689.906	-324.407	1295
-687.435	-324.407	1295
-684.965	-324.407	1295
-684.076	-325.159	1298
-681.6	-325.159	1298
-679.647	-325.409	1299
-677.17	-325.409	1299
-674.692	-325.409	1299
-672.214	-325.409	1299
-669.736	-325.409	1299
-667.258	-325.409	1299
-664.781	-325.409	1299
-661.283	-324.908	1297
-658.809	-324.908	1297
-655.829	-324.658	1296
-653.357	-324.658	1296
-650.885	-324.658	1296
-648.413	-324.658	1296
-645.94	-324.658	1296
-643.468	-324.658	1296
-641.985	-325.159	1298
-639.51	-325.159	1298
-638.015	-325.66	1300
-635.535	-325.66	1300
-634.03	-326.161	1302
-631.546	-326.161	1302
-629.063	-326.161	1302
-626.579	-326.161	1302
-624.095	-326.161	1302
-621.612	-326.161	1302
-619.128	-326.161	1302
-616.645	-326.161	1302
-613.218	-325.66	1300
-610.738	-325.66	1300
-608.258	-325.66	1300
-604.381	-324.908	1297
-601.907	-324.908	1297
-598.046	-324.157	1294
-595.578	-324.157	1294
-591.276	-323.155	1290
-588.815	-323.155	1290
-586.355	-323.155	1290
-582.084	-322.153	1286
-579.631	-322.153	1286
-575.831	-321.401	1283
-573.384	-321.401	1283
-569.602	-320.65	1280
-567.16	-320.65	1280
-564.718	-320.65	1280
-561.838	-320.399	1279
-559.398	-320.399	1279
-555.652	-319.648	1276
-553.218	-319.648	1276
-550.784	-319.648	1276
-545.342	-317.894	1269
-542.921	-317.894	1269
-257.375	-167.089	667
-256.102	-167.089	667
-254.83	-167.089	667
-253.558	-167.089	667
-252.285	-167.089	667
-250.637	-166.838	666
-249.366	-166.838	666
-247.724	-166.587	665
-246.455	-166.587	665
-245.187	-166.587	665
-245.385	-167.59	669
-244.109	-167.59	669
-235.574	-162.579	649
-234.336	-162.579	649
-233.098	-162.579	649
-229.716	-161.076	643
-228.49	-161.076	643
-227.263	-161.076	643
-221.467	-157.82	630
-220.265	-157.82	630
-219.063	-157.82	630
-216.478	-156.818	626
-215.284	-156.818	626
-214.09	-156.818	626
-213.576	-157.319	628
-212.378	-157.319	628
-212.189	-158.07	631
-210.986	-158.07	631
-239.038	-180.115	719
-239.65	-181.618	725
-238.267	-181.618	725
-237.538	-182.119	727
-236.151	-182.119	727
-243.806	-189.133	755
-242.366	-189.133	755
-239.649	-188.131	751
-238.217	-188.131	751
-236.784	-188.131	751
-235.352	-188.131	751
-233.919	-188.131	751
-232.487	-188.131	751
-283.049	-230.467	920
-279.154	-228.713	913
-277.412	-228.713	913
-275.067	-228.212	911
-273.329	-228.212	911
-271.592	-228.212	911
-268.669	-227.21	907
-266.939	-227.21	907
-265.209	-227.21	907
-150.209	-172.6	689
-148.246	-171.848	686
-146.938	-171.848	686
-145.629	-171.848	686
-144.952	-172.6	689
-134.887	-163.581	653
-133.641	-163.581	653
-132.396	-163.581	653
-131.15	-163.581	653
-129.905	-163.581	653
-129.25	-164.333	656
-127.999	-164.333	656
-127.714	-165.585	661
-126.453	-165.585	661
-126.139	-166.838	666
-124.869	-166.838	666
-124.526	-168.091	671
-123.246	-168.091	671
-131.418	-181.117	723
-130.039	-181.117	723
-128.66	-181.117	723
-127.281	-181.117	723
-125.902	-181.117	723
-124.523	-181.117	723
-129.956	-191.137	763
-127.996	-190.386	760
-126.546	-190.386	760
-125.096	-190.386	760
-123.321	-189.885	758
-121.875	-189.885	758
-120.43	-189.885	758
-119.612	-190.887	762
-118.158	-190.887	762
-117.011	-191.388	764
-115.553	-191.388	764
-114.544	-192.139	767
-113.081	-192.139	767
-112.928	-194.394	776
-111.448	-194.394	776
-109.967	-194.394	776
-108.487	-194.394	776
-107.007	-194.394	776
-105.663	-194.644	777
-104.181	-194.644	777
-102.699	-194.644	777
-179.246	-344.698	1376
-176.621	-344.698	1376
-174.376	-345.45	1379
-171.745	-345.45	1379
-169.605	-346.452	1383
-166.967	-346.452	1383
-164.567	-346.953	1385
-161.925	-346.953	1385
-159.628	-347.704	1388
-156.98	-347.704	1388
-154.333	-347.704	1388
-152.013	-348.456	1391
-149.36	-348.456	1391
-147.128	-349.458	1395
-144.467	-349.458	1395
-142.315	-350.711	1400
-140.243	-352.214	1406
-137.561	-352.214	1406
-135.454	-353.717	1412
-132.761	-353.717	1412
-130.068	-353.717	1412
-127.645	-354.468	1415
-124.946	-354.468	1415
-122.247	-354.468	1415
-119.717	-354.969	1417
-117.014	-354.969	1417
-114.149	-354.468	1415
-111.45	-354.468	1415
-108.751	-354.468	1415
-106.052	-354.468	1415
-103.353	-354.468	1415
-100.654	-354.468	1415
-98.0933	-354.969	1417
-95.3904	-354.969	1417
-92.8183	-355.47	1419
-90.1116	-355.47	1419
-87.4665	-355.721	1420
-84.7578	-355.721	1420
-82.0492	-355.721	1420
-79.3406	-355.721	1420
-76.6319	-355.721	1420
-74.1315	-356.723	1424
-71.4153	-356.723	1424
-68.9885	-358.226	1430
-66.2607	-358.226	1430
-63.844	-359.979	1437
-61.103	-359.979	1437
-58.3619	-359.979	1437
-55.737	-360.731	1440
-52.9902	-360.731	1440
-50.2434	-360.731	1440
-47.3977	-359.979	1437
-44.6566	-359.979	1437
-41.8281	-359.228	1434
-39.0927	-359.228	1434
-36.3574	-359.228	1434
-33.5751	-358.727	1432
-30.8221	-358.476	1431
-28.0925	-358.476	1431
-25.3629	-358.476	1431
-22.6332	-358.476	1431
-19.9036	-358.476	1431
-17.21	-359.228	1434
-14.4747	-359.228	1434
-11.7393	-359.228	1434
-9.0354	-360.48	1439
-6.29052	-360.48	1439
-3.56289	-362.234	1446
-0.804665	-362.234	1446
1.95491	-362.484	1447
4.71505	-362.484	1447
8.36373	-405.572	1619
11.452	-405.572	1619
14.5402	-405.572	1619
17.672	-406.574	1623
20.7678	-406.574	1623
23.9078	-407.325	1626
27.0093	-407.325	1626
30.1109	-407.325	1626
33.2125	-407.325	1626
36.3141	-407.325	1626
79.0496	-403.818	1612
82.1245	-403.818	1612
85.1993	-403.818	1612
88.2742	-403.818	1612
91.2924	-403.568	1611
94.3654	-403.568	1611
97.4383	-403.568	1611
100.574	-403.818	1612
103.649	-403.818	1612
106.723	-403.818	1612
109.866	-404.069	1613
112.943	-404.069	1613
116.092	-404.319	1614
119.171	-404.319	1614
122.249	-404.319	1614
125.25	-404.069	1613
128.327	-404.069	1613
131.404	-404.069	1613
134.231	-403.317	1610
137.302	-403.317	1610
140.111	-402.566	1607
142.998	-402.065	1605
146.06	-402.065	1605
149.121	-402.065	1605
152.183	-402.065	1605
155.244	-402.065	1605
158.306	-402.065	1605
161.468	-402.315	1606
164.531	-402.315	1606
167.803	-402.816	1608
170.871	-402.816	1608
174.154	-403.317	1610
177.225	-403.317	1610
180.632	-404.069	1613
183.709	-404.069	1613
186.786	-404.069	1613
189.863	-404.069	1613
192.939	-404.069	1613
225.8	-402.315	1606
228.863	-402.315	1606
231.927	-402.315	1606
234.844	-402.065	1605
237.905	-402.065	1605
240.366	-401.063	1601
243.42	-401.063	1601
245.396	-399.309	1594
248.437	-399.309	1594
251.477	-399.309	1594
254.678	-399.559	1595
257.72	-399.559	1595
260.763	-399.559	1595
229.11	-339.187	1354
231.693	-339.187	1354
234.276	-339.187	1354
236.859	-339.187	1354
238.911	-338.436	1351
240.594	-337.183	1346
243.161	-337.183	1346
245.729	-337.183	1346
247.743	-336.432	1343
250.305	-336.432	1343
252.49	-335.931	1341
255.048	-335.931	1341
257.606	-335.931	1341
260.358	-336.181	1342
262.918	-336.181	1342
265.478	-336.181	1342
268.037	-336.181	1342
269.992	-335.43	1339
272.546	-335.43	1339
273.868	-333.927	1333
276.411	-333.927	1333
278.953	-333.927	1333
279.384	-331.421	1323
281.908	-331.421	1323
283.141	-329.918	1317
285.654	-329.918	1317
287.072	-328.666	1312
289.574	-328.666	1312
292.077	-328.666	1312
294.131	-328.165	1310
296.629	-328.165	1310
299.128	-328.165	1310
301.627	-328.165	1310
304.126	-328.165	1310
306.625	-328.165	1310
309.123	-328.165	1310
311.622	-328.165	1310
313.641	-327.664	1308
316.136	-327.664	1308
317.657	-326.662	1304
320.144	-326.662	1304
320.9	-324.908	1297
323.374	-324.908	1297
325.848	-324.908	1297
326.297	-322.904	1289
328.755	-322.904	1289
329.416	-321.151	1282
331.861	-321.151	1282
333.524	-320.399	1279
335.964	-320.399	1279
338.403	-320.399	1279
340.843	-320.399	1279
343.551	-320.65	1280
345.993	-320.65	1280
348.979	-321.151	1282
351.424	-321.151	1282
354.146	-321.401	1283
356.593	-321.401	1283
359.04	-321.401	1283
361.488	-321.401	1283
363.367	-320.9	1281
365.811	-320.9	1281
367.967	-320.65	1280
370.409	-320.65	1280
372.85	-320.65	1280
375.292	-320.65	1280
377.438	-320.399	1279
379.878	-320.399	1279
381.421	-319.648	1276
383.855	-319.648	1276
384.775	-318.395	1271
387.199	-318.395	1271
388.398	-317.393	1267
390.815	-317.393	1267
393.231	-317.393	1267
395.648	-317.393	1267
398.379	-317.644	1268
400.798	-317.644	1268
404.17	-318.395	1271
406.595	-318.395	1271
410.628	-319.648	1276
413.062	-319.648	1276
415.822	-319.898	1277
418.258	-319.898	1277
420.694	-319.898	1277
469.849	-355.22	1418
472.554	-355.22	1418
474.924	-354.969	1417
477.627	-354.969	1417
480.33	-354.969	1417
482.351	-354.468	1415
485.05	-354.468	1415
487.749	-354.468	1415
490.795	-354.719	1416
493.496	-354.719	1416
496.897	-355.22	1418
499.602	-355.22	1418
503.016	-355.721	1420
505.724	-355.721	1420
508.433	-355.721	1420
511.501	-355.971	1421
513.85	-355.721	1420
516.559	-355.721	1420
518.536	-355.22	1418
521.241	-355.22	1418
523.946	-355.22	1418
525.165	-354.218	1414
525.249	-352.464	1407
527.933	-352.464	1407
527.977	-350.711	1400
530.647	-350.711	1400
533.699	-350.961	1401
533.691	-349.207	1394
536.35	-349.207	1394
536.302	-347.454	1387
538.948	-347.454	1387
540.032	-346.452	1383
542.67	-346.452	1383
545.308	-346.452	1383
546.361	-345.45	1379
548.992	-345.45	1379
549.622	-344.197	1374
552.243	-344.197	1374
552.845	-342.945	1369
555.456	-342.945	1369
558.067	-342.945	1369
559.45	-342.193	1366
562.056	-342.193	1366
563.835	-341.692	1364
566.436	-341.692	1364
569.038	-341.692	1364
571.64	-341.692	1364
573.4	-341.191	1362
575.998	-341.191	1362
577.746	-340.69	1360
580.34	-340.69	1360
581.22	-339.688	1356
583.807	-339.688	1356
585.961	-339.438	1355
588.545	-339.438	1355
590.694	-339.187	1354
593.276	-339.187	1354
595.859	-339.187	1354
597.558	-338.686	1352
600.137	-338.686	1352
601.824	-338.185	1350
604.399	-338.185	1350
605.626	-337.434	1347
608.195	-337.434	1347
610.764	-337.434	1347
612.878	-337.183	1346
615.446	-337.183	1346
618.013	-337.183	1346
553.704	-299.607	1196
555.985	-299.607	1196
558.267	-299.607	1196
560.548	-299.607	1196
562.829	-299.607	1196
565.111	-299.607	1196
567.392	-299.607	1196
569.673	-299.607	1196
617.864	-323.656	1292
620.329	-323.656	1292
622.793	-323.656	1292
631.065	-326.662	1304
633.066	-326.411	1303
635.552	-326.411	1303
638.037	-326.411	1303
642.489	-327.413	1307
644.982	-327.413	1307
647.475	-327.413	1307
650.466	-327.664	1308
652.961	-327.664	1308
655.456	-327.664	1308
657.951	-327.664	1308
689.227	-341.943	1365
691.83	-341.943	1365
694.434	-341.943	1365
697.038	-341.943	1365
700.667	-342.444	1367
703.274	-342.444	1367
733.921	-328.165	1310
736.42	-328.165	1310
738.919	-328.165	1310
741.417	-328.165	1310
743.916	-328.165	1310
746.985	-328.415	1311
749.486	-328.415	1311
752.56	-328.666	1312
755.063	-328.666	1312
757.565	-328.666	1312
761.226	-329.167	1314
763.733	-329.167	1314
767.989	-329.918	1317
770.501	-329.918	1317
773.013	-329.918	1317
776.703	-330.419	1319
779.219	-330.419	1319
782.327	-330.67	1320
784.845	-330.67	1320
786.17	-330.169	1318
788.684	-330.169	1318
786.996	-328.415	1311
789.497	-328.415	1311
791.998	-328.415	1311
791.468	-327.163	1306
793.959	-327.163	1306
795.231	-326.662	1304
797.718	-326.662	1304
800.206	-326.662	1304
-724.958	-302.545	1217
-725.012	-303.539	1221
-722.683	-303.539	1221
-722.714	-304.534	1225
-720.377	-304.534	1225
-720.385	-305.528	1229
-718.041	-305.528	1229
-715.696	-305.528	1229
-716.254	-306.771	1234
-713.9	-306.771	1234
-711.546	-306.771	1234
-711.491	-307.766	1238
-709.13	-307.766	1238
-709.623	-309.009	1243
-707.252	-309.009	1243
-707.716	-310.251	1248
-707.597	-311.246	1252
-708.025	-312.489	1257
-705.627	-312.489	1257
-706.027	-313.732	1262
-703.619	-313.732	1262
-701.212	-313.732	1262
-698.805	-313.732	1262
-699.708	-315.223	1268
-697.29	-315.223	1268
-698.707	-316.964	1275
-696.275	-316.964	1275
-697.108	-318.455	1281
-694.665	-318.455	1281
-695.463	-319.947	1287
-693.008	-319.947	1287
-693.236	-321.19	1292
-690.772	-321.19	1292
-689.906	-321.936	1295
-687.435	-321.936	1295
-684.965	-321.936	1295
-684.076	-322.681	1298
-681.6	-322.681	1298
-679.647	-322.93	1299
-677.17	-322.93	1299
-674.692	-322.93	1299
-672.214	-322.93	1299
-669.736	-322.93	1299
-667.258	-322.93	1299
-664.781	-322.93	1299
-661.283	-322.433	1297
-658.809	-322.433	1297
-655.829	-322.184	1296
-653.357	-322.184	1296
-650.885	-322.184	1296
-648.413	-322.184	1296
-645.94	-322.184	1296
-643.468	-322.184	1296
-641.985	-322.681	1298
-639.51	-322.681	1298
-638.015	-323.179	1300
-635.535	-323.179	1300
-634.03	-323.676	1302
-631.546	-323.676	1302
-629.063	-323.676	1302
-626.579	-323.676	1302
-624.095	-323.676	1302
-621.612	-323.676	1302
-619.128	-323.676	1302
-616.645	-323.676	1302
-613.218	-323.179	1300
-610.738	-323.179	1300
-608.258	-323.179	1300
-604.381	-322.433	1297
-601.907	-322.433	1297
-598.046	-321.687	1294
-595.578	-321.687	1294
-591.276	-320.693	1290
-588.815	-320.693	1290
-586.355	-320.693	1290
-582.084	-319.698	1286
-579.631	-319.698	1286
-575.831	-318.952	1283
-573.384	-318.952	1283
-569.602	-318.207	1280
-567.16	-318.207	1280
-564.718	-318.207	1280
-561.838	-317.958	1279
-559.398	-317.958	1279
-555.652	-317.212	1276
-553.218	-317.212	1276
-550.784	-317.212	1276
-257.375	-165.816	667
-256.102	-165.816	667
-254.83	-165.816	667
-253.938	-166.064	668
-252.664	-166.064	668
-251.39	-166.064	668
-250.115	-166.064	668
-248.841	-166.064	668
-247.938	-166.313	669
-246.661	-166.313	669
-245.385	-166.313	669
-244.109	-166.313	669
-239.566	-164.075	660
-238.307	-164.075	660
-237.048	-164.075	660
-229.716	-159.849	643
-228.49	-159.849	643
-227.263	-159.849	643
-221.467	-156.617	630
-220.265	-156.617	630
-219.063	-156.617	630
-216.478	-155.623	626
-215.284	-155.623	626
-214.09	-155.623	626
-213.916	-156.369	629
-212.716	-156.369	629
-212.189	-156.866	631
-210.986	-156.866	631
-241.033	-180.234	725
-239.65	-180.234	725
-238.267	-180.234	725
-260.409	-198.133	797
-258.889	-198.133	797
-257.369	-198.133	797
-297.259	-230.203	926
-239.649	-186.698	751
-238.217	-186.698	751
-236.784	-186.698	751
-235.352	-186.698	751
-233.919	-186.698	751
-232.487	-186.698	751
-283.664	-229.208	922
-280.071	-227.717	916
-278.324	-227.717	916
-275.369	-226.722	912
-273.629	-226.722	912
-271.89	-226.722	912
-270.15	-226.722	912
-268.41	-226.722	912
-266.671	-226.722	912
-148.246	-170.539	686
-146.938	-170.539	686
-145.629	-170.539	686
-144.952	-171.285	689
-134.887	-162.335	653
-133.641	-162.335	653
-132.396	-162.335	653
-131.15	-162.335	653
-129.905	-162.335	653
-129.25	-163.081	656
-127.999	-163.081	656
-127.714	-164.324	661
-126.453	-164.324	661
-126.139	-165.567	666
-124.869	-165.567	666
-124.526	-166.81	671
-123.246	-166.81	671
-131.418	-179.737	723
-130.039	-179.737	723
-128.66	-179.737	723
-127.281	-179.737	723
-125.902	-179.737	723
-124.523	-179.737	723
-129.956	-189.681	763
-127.996	-188.935	760
-126.546	-188.935	760
-125.096	-188.935	760
-123.321	-188.438	758
-121.875	-188.438	758
-120.43	-188.438	758
-119.612	-189.432	762
-118.158	-189.432	762
-117.011	-189.93	764
-115.553	-189.93	764
-114.544	-190.675	767
-113.081	-190.675	767
-112.928	-192.913	776
-111.448	-192.913	776
-109.967	-192.913	776
-108.487	-192.913	776
-107.007	-192.913	776
-105.663	-193.161	777
-104.181	-193.161	777
-102.699	-193.161	777
-179.376	-342.321	1377
-176.749	-342.321	1377
-174.502	-343.067	1380
-171.87	-343.067	1380
-169.605	-343.812	1383
-166.967	-343.812	1383
-164.804	-344.807	1387
-162.159	-344.807	1387
-159.973	-345.801	1391
-157.32	-345.801	1391
-154.666	-345.801	1391
-152.559	-347.044	1396
-149.897	-347.044	1396
-147.761	-348.287	1401
-145.089	-348.287	1401
-142.925	-349.53	1406
-140.841	-351.022	1412
-138.148	-351.022	1412
-135.934	-352.265	1417
-133.231	-352.265	1417
-130.528	-352.265	1417
-128.096	-353.011	1420
-125.299	-352.762	1419
-122.592	-352.762	1419
-119.717	-352.265	1417
-117.014	-352.265	1417
-114.149	-351.768	1415
-111.45	-351.768	1415
-108.751	-351.768	1415
-106.052	-351.768	1415
-103.353	-351.768	1415
-100.654	-351.768	1415
-98.0933	-352.265	1417
-95.3904	-352.265	1417
-92.8183	-352.762	1419
-90.1116	-352.762	1419
-87.4665	-353.011	1420
-84.7578	-353.011	1420
-82.0492	-353.011	1420
-79.3406	-353.011	1420
-76.6319	-353.011	1420
-74.1315	-354.005	1424
-71.4153	-354.005	1424
-68.9885	-355.497	1430
-66.2607	-355.497	1430
-63.844	-357.237	1437
-61.103	-357.237	1437
-58.3619	-357.237	1437
-55.737	-357.983	1440
-52.9902	-357.983	1440
-50.2434	-357.983	1440
-47.3977	-357.237	1437
-44.6566	-357.237	1437
-41.8281	-356.491	1434
-39.0927	-356.491	1434
-36.3574	-356.491	1434
-33.5751	-355.994	1432
-30.8221	-355.745	1431
-28.0925	-355.745	1431
-25.3629	-355.745	1431
-22.6332	-355.745	1431
-19.9036	-355.745	1431
-17.21	-356.491	1434
-14.4747	-356.491	1434
-11.7393	-356.491	1434
-9.0354	-357.734	1439
-6.29052	-357.734	1439
-3.56289	-359.474	1446
-0.804665	-359.474	1446
1.95491	-359.723	1447
4.71505	-359.723	1447
7.65083	-368.175	1481
10.4758	-368.175	1481
14.5402	-402.482	1619
17.672	-403.476	1623
20.7678	-403.476	1623
23.9078	-404.222	1626
30.1109	-404.222	1626
33.2125	-404.222	1626
36.3141	-404.222	1626
79.0496	-400.742	1612
82.1245	-400.742	1612
85.1993	-400.742	1612
88.2742	-400.742	1612
91.2924	-400.493	1611
94.3654	-400.493	1611
97.4383	-400.493	1611
100.574	-400.742	1612
103.649	-400.742	1612
106.723	-400.742	1612
109.866	-400.99	1613
112.943	-400.99	1613
116.092	-401.239	1614
119.171	-401.239	1614
122.249	-401.239	1614
125.25	-400.99	1613
128.327	-400.99	1613
131.404	-400.99	1613
134.231	-400.244	1610
137.302	-400.244	1610
140.111	-399.499	1607
142.998	-399.001	1605
146.06	-399.001	1605
149.121	-399.001	1605
152.183	-399.001	1605
155.244	-399.001	1605
158.306	-399.001	1605
161.468	-399.25	1606
164.531	-399.25	1606
167.803	-399.747	1608
170.871	-399.747	1608
174.154	-400.244	1610
177.225	-400.244	1610
180.632	-400.99	1613
183.709	-400.99	1613
186.786	-400.99	1613
189.863	-400.99	1613
192.939	-400.99	1613
225.8	-399.25	1606
228.863	-399.25	1606
231.927	-399.25	1606
234.844	-399.001	1605
237.905	-399.001	1605
240.366	-398.007	1601
243.42	-398.007	1601
245.396	-396.267	1594
248.437	-396.267	1594
251.477	-396.267	1594
254.358	-396.018	1593
257.397	-396.018	1593
260.436	-396.018	1593
229.11	-336.603	1354
231.693	-336.603	1354
234.276	-336.603	1354
236.859	-336.603	1354
238.911	-335.857	1351
240.594	-334.614	1346
243.161	-334.614	1346
245.729	-334.614	1346
247.743	-333.868	1343
250.305	-333.868	1343
252.49	-333.371	1341
255.048	-333.371	1341
257.606	-333.371	1341
260.358	-333.62	1342
262.918	-333.62	1342
265.478	-333.62	1342
268.037	-333.62	1342
269.992	-332.874	1339
272.546	-332.874	1339
273.868	-331.382	1333
276.411	-331.382	1333
278.953	-331.382	1333
279.384	-328.896	1323
281.908	-328.896	1323
283.141	-327.405	1317
285.654	-327.405	1317
287.072	-326.162	1312
289.574	-326.162	1312
292.077	-326.162	1312
294.131	-325.665	1310
296.629	-325.665	1310
298.9	-325.416	1309
301.397	-325.416	1309
303.661	-325.167	1308
306.156	-325.167	1308
308.651	-325.167	1308
310.909	-324.919	1307
313.162	-324.67	1306
315.653	-324.67	1306
317.17	-323.676	1302
319.653	-323.676	1302
320.9	-322.433	1297
323.374	-322.433	1297
325.848	-322.433	1297
326.297	-320.444	1289
328.755	-320.444	1289
329.416	-318.704	1282
331.861	-318.704	1282
333.524	-317.958	1279
335.964	-317.958	1279
338.403	-317.958	1279
340.843	-317.958	1279
343.551	-318.207	1280
345.993	-318.207	1280
348.979	-318.704	1282
351.424	-318.704	1282
354.146	-318.952	1283
356.593	-318.952	1283
358.481	-318.455	1281
360.924	-318.455	1281
362.8	-317.958	1279
365.24	-317.958	1279
367.68	-317.958	1279
370.119	-317.958	1279
372.85	-318.207	1280
375.292	-318.207	1280
377.733	-318.207	1280
380.175	-318.207	1280
381.72	-317.461	1277
384.156	-317.461	1277
385.381	-316.466	1273
387.809	-316.466	1273
389.624	-315.969	1271
392.048	-315.969	1271
394.473	-315.969	1271
396.897	-315.969	1271
399.636	-316.218	1272
402.062	-316.218	1272
405.442	-316.964	1275
407.874	-316.964	1275
411.594	-317.958	1279
414.033	-317.958	1279
416.799	-318.207	1280
419.24	-318.207	1280
421.682	-318.207	1280
470.181	-352.762	1419
472.887	-352.762	1419
475.259	-352.513	1418
477.964	-352.513	1418
480.669	-352.513	1418
482.692	-352.016	1416
485.393	-352.016	1416
488.094	-352.016	1416
490.795	-352.016	1416
493.496	-352.016	1416
496.897	-352.513	1418
499.602	-352.513	1418
503.016	-353.011	1420
505.724	-353.011	1420
508.433	-353.011	1420
511.501	-353.259	1421
513.85	-353.011	1420
516.559	-353.011	1420
518.536	-352.513	1418
521.241	-352.513	1418
523.946	-352.513	1418
525.165	-351.519	1414
525.249	-349.779	1407
527.933	-349.779	1407
527.977	-348.039	1400
530.647	-348.039	1400
533.318	-348.039	1400
533.308	-346.298	1393
535.965	-346.298	1393
537.076	-345.304	1389
539.725	-345.304	1389
540.813	-344.31	1385
543.455	-344.31	1385
546.097	-344.31	1385
547.154	-343.315	1381
549.788	-343.315	1381
550.022	-341.824	1375
552.645	-341.824	1375
553.248	-340.581	1370
555.862	-340.581	1370
558.475	-340.581	1370
560.269	-340.083	1368
562.879	-340.083	1368
564.661	-339.586	1366
567.267	-339.586	1366
569.038	-339.089	1364
571.64	-339.089	1364
573.4	-338.592	1362
575.998	-338.592	1362
577.746	-338.095	1360
580.34	-338.095	1360
581.22	-337.1	1356
583.807	-337.1	1356
585.961	-336.852	1355
588.545	-336.852	1355
590.694	-336.603	1354
593.276	-336.603	1354
595.859	-336.603	1354
597.558	-336.106	1352
600.137	-336.106	1352
601.824	-335.609	1350
604.399	-335.609	1350
605.626	-334.863	1347
608.195	-334.863	1347
610.764	-334.863	1347
612.878	-334.614	1346
615.446	-334.614	1346
618.013	-334.614	1346
553.704	-297.324	1196
555.985	-297.324	1196
558.267	-297.324	1196
560.548	-297.324	1196
562.829	-297.324	1196
565.111	-297.324	1196
567.392	-297.324	1196
569.673	-297.324	1196
617.864	-321.19	1292
620.329	-321.19	1292
622.793	-321.19	1292
631.065	-324.173	1304
633.066	-323.924	1303
635.552	-323.924	1303
638.037	-323.924	1303
642.489	-324.919	1307
644.982	-324.919	1307
647.475	-324.919	1307
650.466	-325.167	1308
652.961	-325.167	1308
655.456	-325.167	1308
657.951	-325.167	1308
688.722	-339.089	1364
691.323	-339.089	1364
694.434	-339.338	1365
697.038	-339.338	1365
700.667	-339.835	1367
703.274	-339.835	1367
735.042	-326.162	1312
737.544	-326.162	1312
739.483	-325.913	1311
741.983	-325.913	1311
744.484	-325.913	1311
747.555	-326.162	1312
750.057	-326.162	1312
753.133	-326.41	1313
755.638	-326.41	1313
758.143	-326.41	1313
761.806	-326.908	1315
764.314	-326.908	1315
767.989	-327.405	1317
770.501	-327.405	1317
773.013	-327.405	1317
776.703	-327.902	1319
779.219	-327.902	1319
782.327	-328.151	1320
784.845	-328.151	1320
786.17	-327.653	1318
788.684	-327.653	1318
786.996	-325.913	1311
789.497	-325.913	1311
791.998	-325.913	1311
791.468	-324.67	1306
793.959	-324.67	1306
794.621	-323.924	1303
797.107	-323.924	1303
799.592	-323.924	1303
-724.958	-300.222	1217
-725.012	-301.209	1221
-722.683	-301.209	1221
-722.714	-302.196	1225
-720.377	-302.196	1225
-720.385	-303.183	1229
-718.041	-303.183	1229
-715.696	-303.183	1229
-716.254	-304.416	1234
-713.9	-304.416	1234
-711.546	-304.416	1234
-711.491	-305.403	1238
-709.13	-305.403	1238
-709.623	-306.636	1243
-707.252	-306.636	1243
-707.716	-307.87	1248
-707.597	-308.856	1252
-708.025	-310.09	1257
-705.627	-310.09	1257
-706.027	-311.323	1262
-703.619	-311.323	1262
-701.212	-311.323	1262
-698.805	-311.323	1262
-699.708	-312.803	1268
-697.29	-312.803	1268
-698.707	-314.53	1275
-696.275	-314.53	1275
-697.108	-316.01	1281
-694.665	-316.01	1281
-695.463	-317.491	1287
-693.008	-317.491	1287
-693.236	-318.724	1292
-690.772	-318.724	1292
-689.906	-319.464	1295
-687.435	-319.464	1295
-684.965	-319.464	1295
-684.076	-320.204	1298
-681.6	-320.204	1298
-679.647	-320.451	1299
-677.17	-320.451	1299
-674.692	-320.451	1299
-672.214	-320.451	1299
-669.736	-320.451	1299
-667.258	-320.451	1299
-664.781	-320.451	1299
-661.793	-320.204	1298
-659.317	-320.204	1298
-656.841	-320.204	1298
-654.365	-320.204	1298
-651.889	-320.204	1298
-649.914	-320.451	1299
-645.94	-319.711	1296
-643.468	-319.711	1296
-641.985	-320.204	1298
-639.51	-320.204	1298
-638.015	-320.698	1300
-635.535	-320.698	1300
-634.03	-321.191	1302
-631.546	-321.191	1302
-629.063	-321.191	1302
-626.579	-321.191	1302
-624.095	-321.191	1302
-621.612	-321.191	1302
-619.128	-321.191	1302
-616.645	-321.191	1302
-613.218	-320.698	1300
-610.738	-320.698	1300
-608.258	-320.698	1300
-604.381	-319.957	1297
-601.907	-319.957	1297
-598.046	-319.217	1294
-595.578	-319.217	1294
-591.276	-318.231	1290
-588.815	-318.231	1290
-586.355	-318.231	1290
-582.084	-317.244	1286
-579.631	-317.244	1286
-575.831	-316.504	1283
-573.384	-316.504	1283
-569.602	-315.764	1280
-567.16	-315.764	1280
-564.718	-315.764	1280
-561.838	-315.517	1279
-559.398	-315.517	1279
-555.652	-314.777	1276
-553.218	-314.777	1276
-550.784	-314.777	1276
-257.375	-164.543	667
-256.102	-164.543	667
-254.83	-164.543	667
-253.938	-164.789	668
-252.664	-164.789	668
-251.39	-164.789	668
-250.115	-164.789	668
-248.841	-164.789	668
-247.938	-165.036	669
-246.661	-165.036	669
-245.385	-165.036	669
-244.109	-165.036	669
-239.566	-162.816	660
-238.307	-162.816	660
-237.048	-162.816	660
-229.716	-158.622	643
-228.49	-158.622	643
-227.263	-158.622	643
-221.467	-155.415	630
-220.265	-155.415	630
-219.063	-155.415	630
-216.478	-154.428	626
-215.284	-154.428	626
-214.09	-154.428	626
-213.916	-155.168	629
-212.716	-155.168	629
-212.189	-155.662	631
-210.986	-155.662	631
-241.033	-178.851	725
-239.65	-178.851	725
-238.267	-178.851	725
-260.409	-196.612	797
-258.889	-196.612	797
-257.369	-196.612	797
-297.259	-228.435	926
-239.649	-185.265	751
-236.314	-183.784	745
-234.893	-183.784	745
-233.471	-183.784	745
-232.05	-183.784	745
-230.629	-183.784	745
-283.664	-227.449	922
-280.071	-225.968	916
-278.324	-225.968	916
-275.369	-224.982	912
-273.629	-224.982	912
-271.89	-224.982	912
-270.15	-224.982	912
-268.41	-224.982	912
-266.671	-224.982	912
-148.246	-169.23	686
-146.938	-169.23	686
-146.266	-169.97	689
-144.952	-169.97	689
-134.887	-161.089	653
-133.641	-161.089	653
-132.396	-161.089	653
-131.15	-161.089	653
-129.905	-161.089	653
-129.25	-161.829	656
-127.999	-161.829	656
-127.714	-163.062	661
-126.453	-163.062	661
-126.139	-164.296	666
-124.869	-164.296	666
-132.797	-178.357	723
-131.418	-178.357	723
-130.039	-178.357	723
-128.66	-178.357	723
-127.281	-178.357	723
-125.902	-178.357	723
-130.895	-187.485	760
-129.956	-188.225	763
-127.996	-187.485	760
-126.546	-187.485	760
-125.096	-187.485	760
-123.321	-186.991	758
-121.875	-186.991	758
-120.43	-186.991	758
-119.612	-187.978	762
-118.158	-187.978	762
-117.011	-188.471	764
-115.553	-188.471	764
-114.544	-189.212	767
-113.081	-189.212	767
-112.782	-191.185	775
-111.304	-191.185	775
-109.967	-191.432	776
-108.487	-191.432	776
-107.007	-191.432	776
-105.527	-191.432	776
-104.047	-191.432	776
-102.566	-191.432	776
-179.376	-339.693	1377
-176.749	-339.693	1377
-174.502	-340.433	1380
-171.87	-340.433	1380
-169.605	-341.173	1383
-166.967	-341.173	1383
-164.804	-342.16	1387
-162.159	-342.16	1387
-159.973	-343.146	1391
-157.32	-343.146	1391
-154.666	-343.146	1391
-152.559	-344.38	1396
-149.897	-344.38	1396
-147.761	-345.613	1401
-145.607	-346.847	1406
-142.925	-346.847	1406
-141.539	-350.054	1419
-138.833	-350.054	1419
-136.51	-351.04	1423
-133.795	-351.04	1423
-131.173	-351.287	1424
-128.457	-351.287	1424
-125.741	-351.287	1424
-123.024	-351.287	1424
-120.055	-350.547	1421
-117.344	-350.547	1421
-114.553	-350.3	1420
-111.844	-350.3	1420
-109.136	-350.3	1420
-106.427	-350.3	1420
-103.718	-350.3	1420
-101.01	-350.3	1420
-98.5087	-351.04	1423
-95.7943	-351.04	1423
-93.2762	-351.781	1426
-90.5561	-351.781	1426
-87.8976	-352.027	1427
-85.1756	-352.027	1427
-82.3381	-351.534	1425
-79.6199	-351.534	1425
-76.9018	-351.534	1425
-74.2877	-352.027	1427
-71.5657	-352.027	1427
-69.0849	-353.261	1432
-66.3534	-353.261	1432
-63.844	-354.494	1437
-61.103	-354.494	1437
-58.5244	-355.481	1441
-55.7757	-355.481	1441
-53.027	-355.481	1441
-50.2783	-355.481	1441
-47.4307	-354.741	1438
-44.6877	-354.741	1438
-41.8864	-354.247	1436
-39.1472	-354.247	1436
-36.4081	-354.247	1436
-33.6689	-354.247	1436
-30.9298	-354.247	1436
-28.1906	-354.247	1436
-25.4515	-354.247	1436
-22.7598	-354.988	1439
-20.0149	-354.988	1439
-17.318	-355.974	1443
-14.5655	-355.974	1443
-11.8458	-356.961	1447
-9.08563	-356.961	1447
-6.32549	-356.961	1447
-3.59246	-359.675	1458
-0.811343	-359.675	1458
1.97383	-360.415	1461
4.76067	-360.415	1461
7.65083	-365.349	1481
10.4758	-365.349	1481
14.5671	-400.132	1622
17.7264	-401.612	1628
20.8318	-401.612	1628
30.148	-401.612	1628
33.2534	-401.612	1628
36.3587	-401.612	1628
79.1477	-398.158	1614
82.2264	-398.158	1614
85.305	-398.158	1614
88.3837	-398.158	1614
91.4624	-398.158	1614
94.5411	-398.158	1614
97.6198	-398.158	1614
100.698	-398.158	1614
103.777	-398.158	1614
106.988	-398.652	1616
110.071	-398.652	1616
113.153	-398.652	1616
116.308	-398.898	1617
119.392	-398.898	1617
122.552	-399.145	1618
125.483	-398.652	1616
128.566	-398.652	1616
131.404	-397.912	1613
134.231	-397.172	1610
137.302	-397.172	1610
140.111	-396.432	1607
142.998	-395.938	1605
146.06	-395.938	1605
149.121	-395.938	1605
152.183	-395.938	1605
155.244	-395.938	1605
158.306	-395.938	1605
161.468	-396.185	1606
164.531	-396.185	1606
167.803	-396.678	1608
170.871	-396.678	1608
174.154	-397.172	1610
177.225	-397.172	1610
180.408	-397.418	1611
183.709	-397.912	1613
186.786	-397.912	1613
225.519	-395.691	1604
228.578	-395.691	1604
231.638	-395.691	1604
234.405	-395.198	1602
237.461	-395.198	1602
239.916	-394.211	1598
242.964	-394.211	1598
245.089	-392.731	1592
248.125	-392.731	1592
251.162	-392.731	1592
254.039	-392.484	1591
257.074	-392.484	1591
260.109	-392.484	1591
230.126	-335.499	1360
232.72	-335.499	1360
235.314	-335.499	1360
237.908	-335.499	1360
239.618	-334.266	1355
241.488	-333.279	1351
244.065	-333.279	1351
246.642	-333.279	1351
248.665	-332.539	1348
251.237	-332.539	1348
253.808	-332.539	1348
256.569	-332.785	1349
259.143	-332.785	1349
261.91	-333.032	1350
264.485	-333.032	1350
267.258	-333.279	1351
269.835	-333.279	1351
271.605	-332.292	1347
274.175	-332.292	1347
274.69	-329.825	1337
277.24	-329.825	1337
279.79	-329.825	1337
279.384	-326.371	1323
281.908	-326.371	1323
283.141	-324.891	1317
285.654	-324.891	1317
287.072	-323.658	1312
289.574	-323.658	1312
292.077	-323.658	1312
294.131	-323.164	1310
296.629	-323.164	1310
298.9	-322.918	1309
301.397	-322.918	1309
303.661	-322.671	1308
306.156	-322.671	1308
308.651	-322.671	1308
310.909	-322.424	1307
313.162	-322.178	1306
315.653	-322.178	1306
317.17	-321.191	1302
319.653	-321.191	1302
320.9	-319.957	1297
323.374	-319.957	1297
325.848	-319.957	1297
326.803	-318.477	1291
329.266	-318.477	1291
330.443	-317.244	1286
332.896	-317.244	1286
334.828	-316.75	1284
337.277	-316.75	1284
339.726	-316.75	1284
341.909	-316.504	1283
344.356	-316.504	1283
346.804	-316.504	1283
349.795	-316.997	1285
351.972	-316.75	1284
354.422	-316.75	1284
356.871	-316.75	1284
358.481	-316.01	1281
360.924	-316.01	1281
362.8	-315.517	1279
365.24	-315.517	1279
367.68	-315.517	1279
370.119	-315.517	1279
372.85	-315.764	1280
375.292	-315.764	1280
378.028	-316.01	1281
380.472	-316.01	1281
382.318	-315.517	1279
384.757	-315.517	1279
386.289	-314.777	1276
387.809	-314.037	1273
389.624	-313.544	1271
392.048	-313.544	1271
394.473	-313.544	1271
396.897	-313.544	1271
399.636	-313.79	1272
402.062	-313.79	1272
405.442	-314.53	1275
407.874	-314.53	1275
411.594	-315.517	1279
414.033	-315.517	1279
416.799	-315.764	1280
419.24	-315.764	1280
468.133	-350.547	1421
470.181	-350.054	1419
472.887	-350.054	1419
475.259	-349.807	1418
477.964	-349.807	1418
480.669	-349.807	1418
482.692	-349.314	1416
485.393	-349.314	1416
488.094	-349.314	1416
490.795	-349.314	1416
493.496	-349.314	1416
496.897	-349.807	1418
499.602	-349.807	1418
503.016	-350.3	1420
505.724	-350.3	1420
508.433	-350.3	1420
511.501	-350.547	1421
513.85	-350.3	1420
516.559	-350.3	1420
518.536	-349.807	1418
521.241	-349.807	1418
523.946	-349.807	1418
525.165	-348.82	1414
525.249	-347.093	1407
527.933	-347.093	1407
527.977	-345.367	1400
530.647	-345.367	1400
533.318	-345.367	1400
533.308	-343.64	1393
535.965	-343.64	1393
537.076	-342.653	1389
539.725	-342.653	1389
540.813	-341.666	1385
543.455	-341.666	1385
546.097	-341.666	1385
547.154	-340.679	1381
549.788	-340.679	1381
550.022	-339.199	1375
552.645	-339.199	1375
553.248	-337.966	1370
555.862	-337.966	1370
558.475	-337.966	1370
560.269	-337.473	1368
562.879	-337.473	1368
564.661	-336.979	1366
567.267	-336.979	1366
569.873	-336.979	1366
572.478	-336.979	1366
574.242	-336.486	1364
576.844	-336.486	1364
578.171	-335.746	1361
580.767	-335.746	1361
582.077	-335.006	1358
584.668	-335.006	1358
586.393	-334.512	1356
588.98	-334.512	1356
591.13	-334.266	1355
593.715	-334.266	1355
596.299	-334.266	1355
598.442	-334.019	1354
601.025	-334.019	1354
602.27	-333.279	1351
604.847	-333.279	1351
605.626	-332.292	1347
608.195	-332.292	1347
610.764	-332.292	1347
612.878	-332.045	1346
615.446	-332.045	1346
618.013	-332.045	1346
553.704	-295.042	1196
555.985	-295.042	1196
558.267	-295.042	1196
560.548	-295.042	1196
562.829	-295.042	1196
565.111	-295.042	1196
567.392	-295.042	1196
569.673	-295.042	1196
624.559	-322.178	1306
627.05	-322.178	1306
629.542	-322.178	1306
634.453	-323.411	1311
636.953	-323.411	1311
639.454	-323.411	1311
641.955	-323.411	1311
644.455	-323.411	1311
646.956	-323.411	1311
650.943	-324.151	1314
653.449	-324.151	1314
654.958	-323.658	1312
657.46	-323.658	1312
659.963	-323.658	1312
688.722	-336.486	1364
691.323	-336.486	1364
694.943	-336.979	1366
697.548	-336.979	1366
701.179	-337.473	1368
703.789	-337.473	1368
735.042	-323.658	1312
737.544	-323.658	1312
739.483	-323.411	1311
741.983	-323.411	1311
744.484	-323.411	1311
747.555	-323.658	1312
750.057	-323.658	1312
753.133	-323.905	1313
755.638	-323.905	1313
758.143	-323.905	1313
761.806	-324.398	1315
764.314	-324.398	1315
767.406	-324.645	1316
769.916	-324.645	1316
773.013	-324.891	1317
775.525	-324.891	1317
778.037	-324.891	1317
780.549	-324.891	1317
783.062	-324.891	1317
784.381	-324.398	1315
786.889	-324.398	1315
785.796	-322.918	1309
788.293	-322.918	1309
790.789	-322.918	1309
790.862	-321.931	1305
793.352	-321.931	1305
794.621	-321.438	1303
797.107	-321.438	1303
799.592	-321.438	1303
-724.958	-297.9	1217
-725.012	-298.879	1221
-722.683	-298.879	1221
-722.714	-299.858	1225
-720.377	-299.858	1225
-720.385	-300.837	1229
-718.041	-300.837	1229
-715.696	-300.837	1229
-716.254	-302.061	1234
-713.9	-302.061	1234
-711.546	-302.061	1234
-711.491	-303.04	1238
-709.13	-303.04	1238
-709.623	-304.264	1243
-707.252	-304.264	1243
-707.716	-305.488	1248
-705.336	-305.488	1248
-705.208	-306.467	1252
-702.82	-306.467	1252
-703.229	-307.691	1257
-700.832	-307.691	1257
-698.434	-307.691	1257
-696.036	-307.691	1257
-697.501	-309.404	1264
-695.09	-309.404	1264
-696.515	-311.118	1271
-694.091	-311.118	1271
-694.931	-312.586	1277
-692.496	-312.586	1277
-692.762	-313.81	1282
-690.316	-313.81	1282
-690.017	-314.789	1286
-687.564	-314.789	1286
-685.111	-314.789	1286
-684.25	-315.524	1289
-681.792	-315.524	1289
-680.387	-316.013	1291
-677.924	-316.013	1291
-676.508	-316.503	1293
-674.042	-316.503	1293
-672.614	-316.993	1295
-670.144	-316.993	1295
-667.674	-316.993	1295
-665.204	-316.993	1295
-663.245	-317.237	1296
-660.773	-317.237	1296
-658.301	-317.237	1296
-655.829	-317.237	1296
-654.365	-317.727	1298
-651.889	-317.727	1298
-649.914	-317.972	1299
-647.436	-317.972	1299
-644.958	-317.972	1299
-643.469	-318.461	1301
-640.988	-318.461	1301
-639.488	-318.951	1303
-637.002	-318.951	1303
-635.491	-319.44	1305
-633.001	-319.44	1305
-630.512	-319.44	1305
-628.023	-319.44	1305
-625.533	-319.44	1305
-623.044	-319.44	1305
-620.555	-319.44	1305
-618.066	-319.44	1305
-615.105	-319.196	1304
-612.617	-319.196	1304
-610.13	-319.196	1304
-606.711	-318.706	1302
-604.227	-318.706	1302
-600.357	-317.972	1299
-597.879	-317.972	1299
-593.568	-316.993	1295
-591.098	-316.993	1295
-588.628	-316.993	1295
-584.799	-316.258	1292
-582.335	-316.258	1292
-578.524	-315.524	1289
-576.065	-315.524	1289
-571.827	-314.545	1285
-569.375	-314.545	1285
-566.924	-314.545	1285
-564.034	-314.3	1284
-561.585	-314.3	1284
-558.265	-313.81	1282
-555.819	-313.81	1282
-553.374	-313.81	1282
-257.761	-163.514	668
-256.486	-163.514	668
-255.212	-163.514	668
-253.938	-163.514	668
-252.664	-163.514	668
-251.766	-163.759	669
-250.49	-163.759	669
-249.586	-164.004	670
-248.308	-164.004	670
-247.03	-164.004	670
-245.752	-164.004	670
-244.474	-164.004	670
-243.196	-164.004	670
-241.918	-164.004	670
-223.224	-155.436	635
-222.013	-155.436	635
-220.802	-155.436	635
-219.591	-155.436	635
-217.004	-154.457	631
-215.8	-154.457	631
-214.596	-154.457	631
-213.393	-154.457	631
-245.48	-178.691	730
-243.085	-177.956	727
-241.698	-177.956	727
-240.311	-177.956	727
-238.924	-177.956	727
-260.409	-195.091	797
-258.889	-195.091	797
-257.369	-195.091	797
-297.901	-227.158	928
-296.131	-227.158	928
-236.314	-182.363	745
-234.893	-182.363	745
-233.471	-182.363	745
-232.05	-182.363	745
-230.629	-182.363	745
-284.28	-226.178	924
-280.683	-224.71	918
-278.932	-224.71	918
-275.973	-223.731	914
-274.229	-223.731	914
-272.486	-223.731	914
