-44.1787	32.9829	1025
-41.9182	32.9507	1024
-39.7008	32.9507	1024
-38.5083	33.8517	1052
-36.2303	33.8517	1052
-34.0491	33.9482	1055
-31.7646	33.9482	1055
-29.8992	34.4309	1070
-27.5822	34.4309	1070
-25.3596	34.5596	1074
-23.0339	34.5596	1074
-21.2674	35.4928	1103
-18.879	35.4928	1103
-17.1334	36.8765	1146
-14.6518	36.8765	1146
-12.5844	38.1314	1185
-10.0184	38.1314	1185
-7.54038	38.5819	1199
-4.94403	38.5819	1199
-2.35748	38.7428	1204
0.249697	38.7428	1204
2.89958	39.3221	1222
5.54573	39.3221	1222
8.15837	39.1612	1217
10.7937	39.1612	1217
13.2194	38.5498	1198
15.8135	38.5498	1198
18.3002	38.3245	1191
20.8792	38.3245	1191
23.5764	38.5176	1197
26.1684	38.5176	1197
28.4961	38.1636	1186
31.0643	38.1636	1186
33.3489	37.8418	1176
35.8955	37.8418	1176
38.0171	37.4235	1163
40.5354	37.4235	1163
42.6836	37.1017	1153
45.1804	37.1017	1153
47.7598	37.1661	1155
50.2609	37.1661	1155
53.036	37.3592	1161
55.5501	37.3592	1161
59.1644	38.0671	1183
61.7261	38.0671	1183
64.6682	38.2923	1190
67.2451	38.2923	1190
68.3551	37.4879	1165
70.8778	37.4879	1165
73.4635	37.5201	1166
75.9884	37.5201	1166
79.254	37.874	1177
81.8027	37.874	1177
83.1331	37.327	1160
85.645	37.327	1160
89.6008	37.9384	1179
92.1539	37.9384	1179
94.7069	37.9384	1179
97.2599	37.9384	1179
99.6437	37.874	1177
102.192	37.874	1177
104.385	37.7453	1173
106.925	37.7453	1173
110.398	38.0671	1183
112.96	38.0671	1183
116.889	38.5176	1197
119.481	38.5176	1197
123.297	38.9037	1209
125.915	38.9037	1209
131.935	39.9334	1241
134.622	39.9334	1241
122.583	24.5843	764
124.237	24.5843	764
125.892	24.5843	764
127.546	24.5843	764
129.201	24.5843	764
130.855	24.5843	764
676.902	50.7776	1578
680.319	50.7776	1578
683.736	50.7776	1578
687.153	50.7776	1578
690.57	50.7776	1578
693.987	50.7776	1578
697.846	50.8098	1579
701.265	50.8098	1579
705.131	50.8419	1580
708.552	50.8419	1580
712.875	50.9063	1582
718.112	51.035	1586
721.546	51.035	1586
726.352	51.1315	1589
729.792	51.1315	1589
733.695	51.1637	1590
737.138	51.1637	1590
739.183	51.0672	1587
742.62	51.0672	1587
744.646	50.9706	1584
748.076	50.9706	1584
750.557	50.9063	1582
753.983	50.9063	1582
757.409	50.9063	1582
760.835	50.9063	1582
763.777	50.8741	1581
767.201	50.8741	1581
769.649	50.8098	1579
773.069	50.8098	1579
774.521	50.681	1575
777.931	50.681	1575
778.365	50.488	1569
781.763	50.488	1569
782.158	50.2949	1563
785.542	50.2949	1563
785.898	50.1018	1557
789.27	50.1018	1557
790.605	49.9731	1553
793.968	49.9731	1553
795.791	49.8766	1550
799.147	49.8766	1550
801.468	49.8122	1548
804.82	49.8122	1548
806.606	49.7157	1545
809.952	49.7157	1545
811.718	49.6192	1542
815.057	49.6192	1542
816.273	49.4904	1538
819.604	49.4904	1538
821.329	49.3939	1535
824.653	49.3939	1535
826.359	49.2974	1532
829.676	49.2974	1532
831.906	49.233	1530
835.219	49.233	1530
837.984	49.2008	1529
841.295	49.2008	1529
843.501	49.1365	1527
846.808	49.1365	1527
849.558	49.1043	1526
852.862	49.1043	1526
856.167	49.1043	1526
873.8	48.0746	1494
877.035	48.0746	1494
880.27	48.0746	1494
882.914	48.0424	1493
886.147	48.0424	1493
889.975	48.0746	1494
893.21	48.0746	1494
896.446	48.0746	1494
899.079	48.0424	1493
902.312	48.0424	1493
904.331	47.9781	1491
907.56	47.9781	1491
908.956	47.8815	1488
912.178	47.8815	1488
913.555	47.785	1485
916.771	47.785	1485
918.747	47.7206	1483
921.959	47.7206	1483
923.922	47.6563	1481
927.129	47.6563	1481
930.336	47.6563	1481
-361.962	27.6136	804
-360.221	27.6136	804
-330.711	27.4762	800
-331.035	27.6479	805
-329.292	27.6479	805
-330.397	27.8883	812
-328.639	27.8883	812
-328.491	28.0257	816
-326.724	28.0257	816
-325.753	28.0944	818
-323.982	28.0944	818
-328.513	28.6439	834
-326.707	28.6439	834
-326.849	28.8156	839
-325.032	28.8156	839
-323.6	28.85	840
-321.781	28.85	840
-319.962	28.85	840
-318.143	28.85	840
-316.325	28.85	840
-313.382	28.747	837
-311.57	28.747	837
-308.647	28.6439	834
-306.841	28.6439	834
-303.206	28.4722	829
-301.411	28.4722	829
-298.171	28.3348	825
-274.153	28.4378	828
-256.571	26.7893	780
-254.882	26.7893	780
-253.193	26.7893	780
-251.504	26.7893	780
-249.815	26.7893	780
-276.126	30.2238	880
-274.22	30.2238	880
-272.934	30.2925	882
-271.024	30.2925	882
-269.114	30.2925	882
-267.204	30.2925	882
-209.348	23.9043	696
-207.841	23.9043	696
-206.037	23.8699	695
-204.532	23.8699	695
-203.319	23.9043	696
-201.812	23.9043	696
-202.032	24.1103	702
-207.652	24.969	727
-206.078	24.969	727
-202.253	24.6942	719
-200.696	24.6942	719
-204.125	25.3124	737
-202.529	25.3124	737
-202.024	25.4498	741
-200.419	25.4498	741
-200.156	25.6215	746
-198.54	25.6215	746
-197.453	25.6902	748
-195.833	25.6902	748
-194.214	25.6902	748
-192.594	25.6902	748
-191.229	25.7246	749
-189.607	25.7246	749
-188.488	25.7933	751
-187.359	25.862	753
-185.728	25.862	753
-184.831	25.965	756
-183.194	25.965	756
-181.797	25.9993	757
-180.158	25.9993	757
-178.755	26.0337	758
-177.113	26.0337	758
-175.472	26.0337	758
-173.83	26.0337	758
-171.962	25.9993	757
-170.323	25.9993	757
-168.461	25.965	756
-166.824	25.965	756
-165.187	25.965	756
-163.549	25.965	756
-161.912	25.965	756
-160.275	25.965	756
-158.638	25.965	756
-157.001	25.965	756
-155.364	25.965	756
-153.93	25.9993	757
-152.291	25.9993	757
-151.05	26.068	759
-149.406	26.068	759
-148.152	26.1367	761
-146.504	26.1367	761
-145.047	26.1711	762
-143.397	26.1711	762
-142.305	26.2741	765
-140.648	26.2741	765
-139.355	26.3428	767
-137.694	26.3428	767
-136.743	26.4802	771
-135.073	26.4802	771
-139.764	34.6887	1010
-139.62	35.2039	1025
-137.4	35.2039	1025
-131.092	34.1392	994
-128.94	34.1392	994
-124.619	33.5553	977
-122.503	33.5553	977
-120.634	33.624	979
-118.514	33.624	979
-126.5	36.5433	1064
-124.196	36.5433	1064
-122.809	36.8181	1072
-120.487	36.8181	1072
-117.064	36.4746	1062
-114.764	36.4746	1062
-109.605	35.5473	1035
-107.364	35.5473	1035
-108.373	36.6464	1067
-106.062	36.6464	1067
-103.849	36.6807	1068
-101.536	36.6807	1068
-99.5023	36.7837	1071
-97.1831	36.7837	1071
-95.6611	37.0928	1080
-93.3224	37.0928	1080
-89.4674	36.4746	1062
-87.1677	36.4746	1062
-84.3885	36.2686	1056
-82.1018	36.2686	1056
-78.6058	35.719	1040
-76.3538	35.719	1040
-74.2443	35.7877	1042
-71.9879	35.7877	1042
-69.8653	35.8564	1044
-67.6046	35.8564	1044
-65.8447	36.1312	1052
-63.5666	36.1312	1052
-60.9973	35.9595	1047
-58.7301	35.9595	1047
-56.7325	36.1312	1052
-54.4545	36.1312	1052
-51.2341	35.4786	1033
-48.9972	35.4786	1033
-46.3982	35.2039	1025
-44.1787	35.2039	1025
-41.9182	35.1695	1024
-39.7008	35.1695	1024
-38.5083	36.1312	1052
-36.2303	36.1312	1052
-34.0491	36.2342	1055
-31.7646	36.2342	1055
-29.8992	36.7494	1070
-27.5822	36.7494	1070
-25.3596	36.8868	1074
-23.0339	36.8868	1074
-21.2674	37.8828	1103
-18.879	37.8828	1103
-17.1334	39.3596	1146
-14.6518	39.3596	1146
-12.5844	40.6991	1185
-10.0184	40.6991	1185
-7.54038	41.1799	1199
-4.94403	41.1799	1199
-2.35748	41.3517	1204
0.249697	41.3517	1204
2.89958	41.9699	1222
5.54573	41.9699	1222
8.15837	41.7981	1217
10.7937	41.7981	1217
13.2194	41.1456	1198
15.8135	41.1456	1198
18.3002	40.9052	1191
20.8792	40.9052	1191
23.5764	41.1112	1197
26.1684	41.1112	1197
28.4961	40.7334	1186
31.0643	40.7334	1186
33.3489	40.39	1176
35.8955	40.39	1176
38.0171	39.9435	1163
40.5354	39.9435	1163
42.6836	39.6	1153
45.1804	39.6	1153
47.7598	39.6687	1155
50.2609	39.6687	1155
53.036	39.8748	1161
55.5501	39.8748	1161
59.1644	40.6304	1183
61.7261	40.6304	1183
64.6682	40.8708	1190
67.2451	40.8708	1190
68.3551	40.0122	1165
70.8778	40.0122	1165
73.4635	40.0465	1166
75.9884	40.0465	1166
79.254	40.4243	1177
81.8027	40.4243	1177
83.1331	39.8405	1160
85.645	39.8405	1160
89.6008	40.493	1179
92.1539	40.493	1179
94.7069	40.493	1179
97.2599	40.493	1179
99.6437	40.4243	1177
102.192	40.4243	1177
104.385	40.287	1173
106.925	40.287	1173
110.398	40.6304	1183
112.96	40.6304	1183
116.889	41.1112	1197
119.481	41.1112	1197
123.297	41.5234	1209
125.915	41.5234	1209
131.935	42.6224	1241
134.622	42.6224	1241
122.583	26.2398	764
124.237	26.2398	764
125.892	26.2398	764
127.546	26.2398	764
129.201	26.2398	764
130.855	26.2398	764
679.457	54.1281	1576
684.169	54.2311	1579
687.588	54.2311	1579
691.008	54.2311	1579
694.427	54.2311	1579
698.288	54.2655	1580
701.709	54.2655	1580
705.577	54.2998	1581
709	54.2998	1581
713.325	54.3685	1583
718.112	54.4715	1586
721.546	54.4715	1586
726.809	54.6089	1590
730.252	54.6089	1590
734.156	54.6433	1591
737.601	54.6433	1591
740.581	54.6089	1590
744.024	54.6089	1590
746.057	54.5059	1587
749.493	54.5059	1587
751.032	54.3685	1583
754.46	54.3685	1583
757.888	54.3685	1583
761.315	54.3685	1583
764.743	54.3685	1583
768.171	54.3685	1583
770.624	54.2998	1581
774.048	54.2998	1581
775.013	54.1281	1576
778.425	54.1281	1576
779.357	53.9564	1571
782.759	53.9564	1571
783.659	53.7846	1566
787.05	53.7846	1566
788.422	53.6472	1562
791.805	53.6472	1562
793.66	53.5442	1559
797.036	53.5442	1559
797.845	53.3725	1554
801.21	53.3725	1554
803.539	53.3038	1552
806.9	53.3038	1552
808.172	53.1664	1548
811.524	53.1664	1548
812.245	52.9947	1543
815.586	52.9947	1543
816.804	52.8573	1539
820.137	52.8573	1539
821.864	52.7543	1536
825.19	52.7543	1536
827.437	52.6856	1534
830.759	52.6856	1534
832.45	52.5825	1531
835.765	52.5825	1531
837.984	52.5139	1529
841.295	52.5139	1529
842.949	52.4108	1526
846.253	52.4108	1526
849.001	52.3765	1525
852.303	52.3765	1525
875.554	51.4148	1497
876.448	51.2774	1493
879.681	51.2774	1493
881.731	51.2087	1491
884.96	51.2087	1491
887.593	51.1744	1490
890.819	51.1744	1490
894.045	51.1744	1490
897.272	51.1744	1490
900.498	51.1744	1490
903.118	51.14	1489
906.343	51.14	1489
908.345	51.0714	1487
911.565	51.0714	1487
912.94	50.9683	1484
916.153	50.9683	1484
918.747	50.934	1483
921.959	50.934	1483
925.17	50.934	1483
928.381	50.934	1483
931.593	50.934	1483
-361.962	29.3557	804
-360.221	29.3557	804
-330.711	29.2096	800
-331.035	29.3922	805
-329.292	29.3922	805
-330.397	29.6478	812
-328.639	29.6478	812
-328.491	29.7938	816
-326.724	29.7938	816
-325.753	29.8668	818
-323.982	29.8668	818
-328.513	30.451	834
-326.707	30.451	834
-326.849	30.6336	839
-325.032	30.6336	839
-323.6	30.6701	840
-321.781	30.6701	840
-319.962	30.6701	840
-318.143	30.6701	840
-316.325	30.6701	840
-313.382	30.5606	837
-311.57	30.5606	837
-308.647	30.451	834
-306.841	30.451	834
-303.206	30.2685	829
-301.411	30.2685	829
-298.171	30.1224	825
-296.384	30.1224	825
-275.946	30.232	828
-274.153	30.232	828
-256.571	28.4794	780
-254.882	28.4794	780
-253.193	28.4794	780
-251.504	28.4794	780
-249.815	28.4794	780
-216.614	25.5584	700
-215.098	25.5584	700
-213.277	25.5219	699
-211.764	25.5219	699
-209.348	25.4124	696
-207.841	25.4124	696
-206.333	25.4124	696
-204.826	25.4124	696
-203.027	25.3759	695
-201.522	25.3759	695
-201.744	25.5949	701
-208.795	26.6903	731
-207.212	26.6903	731
-205.629	26.6903	731
-204.046	26.6903	731
-204.125	26.9094	737
-202.529	26.9094	737
-203.659	27.2745	747
-202.042	27.2745	747
-200.693	27.311	748
-199.073	27.311	748
-198.509	27.457	752
-196.881	27.457	752
-194.992	27.4205	751
-193.366	27.4205	751
-191.995	27.457	752
-190.367	27.457	752
-188.99	27.4935	753
-187.857	27.5666	755
-186.222	27.5666	755
-184.831	27.6031	756
-183.194	27.6031	756
-181.797	27.6396	757
-180.158	27.6396	757
-178.755	27.6761	758
-177.113	27.6761	758
-175.24	27.6396	757
-173.601	27.6396	757
-171.962	27.6396	757
-170.323	27.6396	757
-168.683	27.6396	757
-167.044	27.6396	757
-165.405	27.6396	757
-163.766	27.6396	757
-161.912	27.6031	756
-160.275	27.6031	756
-158.848	27.6396	757
-157.209	27.6396	757
-155.775	27.6761	758
-154.337	27.7126	759
-152.694	27.7126	759
-151.249	27.7491	760
-149.603	27.7491	760
-148.347	27.8222	762
-146.697	27.8222	762
-145.428	27.8952	764
-143.773	27.8952	764
-142.677	28.0047	767
-141.016	28.0047	767
-139.718	28.0777	769
-138.053	28.0777	769
-136.743	28.1508	771
-135.073	28.1508	771
-133.923	28.2603	774
-132.247	28.2603	774
-138.513	34.3943	942
-136.473	34.3943	942
-144.423	36.9502	1012
-142.232	36.9502	1012
-139.764	36.8771	1010
-134.307	36.0009	986
-132.172	36.0009	986
-127.795	35.3801	969
-125.697	35.3801	969
-124.619	35.6722	977
-122.503	35.6722	977
-120.634	35.7453	979
-118.514	35.7453	979
-117.94	36.2199	992
-115.792	36.2199	992
-115.018	36.6581	1004
-112.844	36.6581	1004
-111.001	36.7676	1007
-108.82	36.7676	1007
-106.746	36.8041	1008
-104.563	36.8041	1008
-102.786	36.9502	1012
-100.595	36.9502	1012
-98.3064	36.9137	1011
-96.1172	36.9137	1011
-93.7421	36.8406	1009
-91.5572	36.8406	1009
-89.4608	36.8771	1010
-87.2738	36.8771	1010
-86.0976	37.3153	1022
-83.8846	37.3153	1022
-82.6304	37.7534	1034
-80.3914	37.7534	1034
-77.7744	37.5709	1029
-75.5462	37.5709	1029
-72.2492	37.0232	1014
-70.0535	37.0232	1014
-68.7277	37.4978	1027
-66.5038	37.4978	1027
-65.2813	38.082	1043
-63.0228	38.082	1043
-60.9973	38.2281	1047
-58.7301	38.2281	1047
-55.7618	37.7534	1034
-53.5228	37.7534	1034
-50.1926	36.9502	1012
-48.0012	36.9502	1012
-45.855	36.9867	1013
-43.6615	36.9867	1013
-41.4679	36.9867	1013
-39.2743	36.9867	1013
-37.0441	36.9502	1012
-34.8527	36.9502	1012
-32.6936	36.9867	1013
-30.5	36.9867	1013
-29.6197	38.7027	1060
-27.3244	38.7027	1060
-24.8165	38.3741	1051
-22.5407	38.3741	1051
-20.689	39.1774	1073
-18.3655	39.1774	1073
-16.8194	41.076	1125
-14.3833	41.076	1125
-12.1915	41.9158	1148
-9.70555	41.9158	1148
-7.29511	42.3539	1160
-4.78322	42.3539	1160
-2.30657	43.0112	1178
0.244305	43.0112	1178
2.83789	43.6684	1196
5.42774	43.6684	1196
8.0377	43.7779	1199
10.634	43.7779	1199
13.0869	43.3033	1186
15.6551	43.3033	1186
18.0697	42.9381	1176
20.6162	42.9381	1176
22.9067	42.4635	1163
25.4251	42.4635	1163
27.535	41.8428	1146
30.0166	41.8428	1146
32.0728	41.2951	1131
34.5219	41.2951	1131
37.0691	41.4046	1134
39.5247	41.4046	1134
42.4615	41.8793	1147
44.9453	41.8793	1147
47.1809	41.6602	1141
49.6517	41.6602	1141
52.3965	41.8793	1147
54.8802	41.8793	1147
57.564	42.0253	1151
60.0564	42.0253	1151
62.7662	42.1714	1155
65.2673	42.1714	1155
68.3551	42.5365	1165
70.8778	42.5365	1165
72.5815	42.0618	1152
75.076	42.0618	1152
78.1093	42.3539	1160
80.6212	42.3539	1160
82.3448	41.9523	1149
84.8328	41.9523	1149
87.3969	41.9888	1150
89.8872	41.9888	1150
92.8594	42.2079	1156
95.3626	42.2079	1156
98.2045	42.3539	1160
100.716	42.3539	1160
102.961	42.2444	1157
105.467	42.2444	1157
108.345	42.3905	1161
110.859	42.3905	1161
114.252	42.7191	1170
116.786	42.7191	1170
121.359	43.4493	1190
123.936	43.4493	1190
128.533	44.143	1209
131.151	44.143	1209
131.667	43.4493	1190
134.243	43.4493	1190
122.583	27.8952	764
124.237	27.8952	764
125.892	27.8952	764
127.546	27.8952	764
129.201	27.8952	764
130.855	27.8952	764
679.457	57.5429	1576
684.169	57.6525	1579
687.588	57.6525	1579
691.008	57.6525	1579
694.427	57.6525	1579
698.288	57.689	1580
701.709	57.689	1580
705.577	57.7255	1581
709	57.7255	1581
713.325	57.7985	1583
718.112	57.9081	1586
721.546	57.9081	1586
726.809	58.0541	1590
730.252	58.0541	1590
734.156	58.0906	1591
737.601	58.0906	1591
740.581	58.0541	1590
744.024	58.0541	1590
746.057	57.9446	1587
749.493	57.9446	1587
751.032	57.7985	1583
754.46	57.7985	1583
757.888	57.7985	1583
761.315	57.7985	1583
764.743	57.7985	1583
768.171	57.7985	1583
770.624	57.7255	1581
774.048	57.7255	1581
775.013	57.5429	1576
778.425	57.5429	1576
779.357	57.3604	1571
782.759	57.3604	1571
783.659	57.1778	1566
787.05	57.1778	1566
788.422	57.0318	1562
791.805	57.0318	1562
793.66	56.9222	1559
797.036	56.9222	1559
797.845	56.7397	1554
801.21	56.7397	1554
803.539	56.6667	1552
806.9	56.6667	1552
808.172	56.5206	1548
811.524	56.5206	1548
812.245	56.338	1543
815.586	56.338	1543
816.804	56.192	1539
820.137	56.192	1539
821.864	56.0825	1536
825.19	56.0825	1536
827.437	56.0094	1534
830.759	56.0094	1534
832.45	55.8999	1531
835.765	55.8999	1531
837.984	55.8269	1529
841.295	55.8269	1529
842.949	55.7173	1526
846.253	55.7173	1526
849.001	55.6808	1525
852.303	55.6808	1525
875.554	54.6585	1497
876.448	54.5124	1493
879.681	54.5124	1493
881.731	54.4394	1491
884.96	54.4394	1491
887.593	54.4029	1490
890.819	54.4029	1490
894.045	54.4029	1490
897.272	54.4029	1490
900.498	54.4029	1490
903.118	54.3664	1489
906.343	54.3664	1489
908.345	54.2934	1487
911.565	54.2934	1487
912.94	54.1838	1484
916.153	54.1838	1484
918.747	54.1473	1483
921.959	54.1473	1483
925.17	54.1473	1483
928.381	54.1473	1483
931.593	54.1473	1483
-214.539	18.2564	472
-213.517	18.2564	472
-212.495	18.2564	472
-211.473	18.2564	472
-210.897	18.2951	473
-330.711	30.943	800
-331.857	31.2138	807
-330.11	31.2138	807
-330.804	31.4459	813
-329.043	31.4459	813
-329.296	31.6393	818
-327.524	31.6393	818
-327.744	31.8327	823
-325.962	31.8327	823
-328.513	32.2581	834
-326.707	32.2581	834
-324.511	32.2194	833
-322.707	32.2194	833
-322.445	32.3742	837
-320.632	32.3742	837
-318.058	32.2968	835
-315.871	32.2581	834
-314.065	32.2581	834
-311.885	32.2194	833
-310.081	32.2194	833
-307.167	32.1034	830
-305.37	32.1034	830
-302.841	32.0261	828
-301.048	32.0261	828
-298.171	31.91	825
-296.384	31.91	825
-294.24	31.8713	824
-292.456	31.8713	824
-290.672	31.8713	824
-289.238	31.91	825
-287.452	31.91	825
-286.011	31.9487	826
-284.223	31.9487	826
-282.776	31.9874	827
-280.985	31.9874	827
-279.532	32.0261	828
-277.739	32.0261	828
-275.946	32.0261	828
-274.153	32.0261	828
-256.571	30.1695	780
-254.882	30.1695	780
-252.869	30.1308	779
-251.182	30.1308	779
-249.495	30.1308	779
-216.614	27.0752	700
-215.098	27.0752	700
-213.277	27.0365	699
-211.764	27.0365	699
-209.949	26.9978	698
-208.438	26.9978	698
-206.926	26.9978	698
-205.415	26.9978	698
-201.522	26.8818	695
-201.744	27.1138	701
-208.795	28.2742	731
-207.212	28.2742	731
-205.629	28.2742	731
-204.046	28.2742	731
-204.125	28.5063	737
-202.529	28.5063	737
-203.659	28.8931	747
-202.042	28.8931	747
-200.693	28.9317	748
-199.073	28.9317	748
-198.509	29.0865	752
-196.881	29.0865	752
-194.992	29.0478	751
-193.366	29.0478	751
-191.995	29.0865	752
-190.367	29.0865	752
-188.99	29.1251	753
-187.857	29.2025	755
-186.222	29.2025	755
-184.831	29.2412	756
-183.194	29.2412	756
-181.797	29.2799	757
-180.158	29.2799	757
-178.755	29.3185	758
-177.113	29.3185	758
-175.24	29.2799	757
-173.601	29.2799	757
-171.962	29.2799	757
-170.323	29.2799	757
-168.683	29.2799	757
-167.044	29.2799	757
-165.405	29.2799	757
-163.766	29.2799	757
-161.912	29.2412	756
-160.275	29.2412	756
-158.848	29.2799	757
-157.209	29.2799	757
-155.775	29.3185	758
-154.337	29.3572	759
-152.694	29.3572	759
-151.249	29.3959	760
-149.603	29.3959	760
-148.347	29.4733	762
-146.697	29.4733	762
-145.428	29.5506	764
-143.773	29.5506	764
-142.677	29.6666	767
-141.016	29.6666	767
-139.718	29.744	769
-138.053	29.744	769
-136.743	29.8214	771
-135.073	29.8214	771
-133.923	29.9374	774
-132.247	29.9374	774
-138.513	36.4354	942
-136.473	36.4354	942
-144.423	39.143	1012
-142.232	39.143	1012
-139.764	39.0656	1010
-137.577	39.0656	1010
-132.172	38.1373	986
-127.795	37.4798	969
-125.697	37.4798	969
-124.619	37.7892	977
-122.503	37.7892	977
-120.634	37.8666	979
-118.514	37.8666	979
-117.94	38.3694	992
-115.792	38.3694	992
-115.018	38.8335	1004
-112.844	38.8335	1004
-111.001	38.9496	1007
-108.82	38.9496	1007
-106.746	38.9882	1008
-104.563	38.9882	1008
-102.786	39.143	1012
-100.595	39.143	1012
-98.3064	39.1043	1011
-96.1172	39.1043	1011
-93.7421	39.0269	1009
-91.5572	39.0269	1009
-89.4608	39.0656	1010
-87.2738	39.0656	1010
-86.0976	39.5297	1022
-83.8846	39.5297	1022
-82.6304	39.9939	1034
-80.3914	39.9939	1034
-77.7744	39.8005	1029
-75.5462	39.8005	1029
-72.2492	39.2203	1014
-70.0535	39.2203	1014
-68.7277	39.7231	1027
-66.5038	39.7231	1027
-65.2813	40.342	1043
-63.0228	40.342	1043
-60.9973	40.4967	1047
-58.7301	40.4967	1047
-55.7618	39.9939	1034
-53.5228	39.9939	1034
-50.1926	39.143	1012
-48.0012	39.143	1012
-45.855	39.1816	1013
-43.6615	39.1816	1013
-41.4679	39.1816	1013
-39.2743	39.1816	1013
-37.0441	39.143	1012
-34.8527	39.143	1012
-32.6936	39.1816	1013
-30.5	39.1816	1013
-29.6197	40.9995	1060
-27.3244	40.9995	1060
-24.8165	40.6514	1051
-22.5407	40.6514	1051
-20.689	41.5024	1073
-18.3655	41.5024	1073
-16.8194	43.5137	1125
-14.3833	43.5137	1125
-12.1915	44.4033	1148
-9.70555	44.4033	1148
-7.29511	44.8674	1160
-4.78322	44.8674	1160
-2.30657	45.5636	1178
0.244305	45.5636	1178
2.83789	46.2599	1196
5.42774	46.2599	1196
8.0377	46.3759	1199
10.634	46.3759	1199
13.0869	45.8731	1186
15.6551	45.8731	1186
18.0697	45.4863	1176
20.6162	45.4863	1176
22.9067	44.9835	1163
25.4251	44.9835	1163
27.535	44.3259	1146
30.0166	44.3259	1146
32.0728	43.7457	1131
34.5219	43.7457	1131
37.0691	43.8618	1134
39.5247	43.8618	1134
42.4615	44.3646	1147
44.9453	44.3646	1147
47.1809	44.1325	1141
49.6517	44.1325	1141
52.3965	44.3646	1147
54.8802	44.3646	1147
57.564	44.5193	1151
60.0564	44.5193	1151
62.7662	44.674	1155
65.2673	44.674	1155
68.3551	45.0608	1165
70.8778	45.0608	1165
72.5815	44.558	1152
75.076	44.558	1152
78.1093	44.8674	1160
80.6212	44.8674	1160
82.3448	44.442	1149
84.8328	44.442	1149
87.3969	44.4806	1150
89.8872	44.4806	1150
92.8594	44.7127	1156
95.3626	44.7127	1156
98.2045	44.8674	1160
100.716	44.8674	1160
102.961	44.7514	1157
105.467	44.7514	1157
108.345	44.9061	1161
110.859	44.9061	1161
114.252	45.2542	1170
116.786	45.2542	1170
121.359	46.0278	1190
123.936	46.0278	1190
128.533	46.7627	1209
131.151	46.7627	1209
131.667	46.0278	1190
134.243	46.0278	1190
122.583	29.5506	764
124.237	29.5506	764
125.892	29.5506	764
127.546	29.5506	764
129.201	29.5506	764
130.855	29.5506	764
676.044	60.9578	1576
679.457	60.9578	1576
684.169	61.0738	1579
687.588	61.0738	1579
691.883	61.1512	1581
695.306	61.1512	1581
699.172	61.1899	1582
702.598	61.1899	1582
706.47	61.2286	1583
709.897	61.2286	1583
713.776	61.2672	1584
718.112	61.3446	1586
721.546	61.3446	1586
726.352	61.4606	1589
729.792	61.4606	1589
734.156	61.538	1591
737.601	61.538	1591
740.581	61.4993	1590
744.024	61.4993	1590
746.057	61.3833	1587
749.493	61.3833	1587
750.557	61.1899	1582
753.983	61.1899	1582
756.93	61.1512	1581
760.354	61.1512	1581
763.777	61.1512	1581
767.201	61.1512	1581
769.649	61.0738	1579
773.069	61.0738	1579
773.537	60.8418	1573
776.943	60.8418	1573
777.373	60.6097	1567
780.766	60.6097	1567
782.158	60.455	1563
785.542	60.455	1563
787.917	60.3776	1561
791.298	60.3776	1561
793.151	60.2616	1558
796.524	60.2616	1558
798.358	60.1455	1555
801.725	60.1455	1555
802.504	59.9522	1550
805.86	59.9522	1550
807.65	59.8361	1547
811	59.8361	1547
811.718	59.6427	1542
815.057	59.6427	1542
815.743	59.4493	1537
819.071	59.4493	1537
821.329	59.372	1535
824.653	59.372	1535
826.359	59.2559	1532
829.676	59.2559	1532
831.906	59.1786	1530
835.219	59.1786	1530
836.888	59.0625	1527
840.195	59.0625	1527
841.844	58.9465	1524
845.144	58.9465	1524
848.444	58.9465	1524
851.744	58.9465	1524
853.922	58.8691	1522
872.313	57.9022	1497
875.554	57.9022	1497
877.622	57.8248	1495
880.859	57.8248	1495
881.731	57.6701	1491
884.96	57.6701	1491
887.593	57.6314	1490
890.819	57.6314	1490
894.045	57.6314	1490
896.67	57.5927	1489
899.894	57.5927	1489
903.118	57.5927	1489
906.343	57.5927	1489
908.956	57.5541	1488
912.178	57.5541	1488
914.17	57.4767	1486
917.388	57.4767	1486
919.986	57.438	1485
923.202	57.438	1485
926.418	57.438	1485
929.633	57.438	1485
932.849	57.438	1485
-214.539	19.2791	472
-213.517	19.2791	472
-212.495	19.2791	472
-211.473	19.2791	472
-210.897	19.32	473
-330.711	32.6765	800
-331.857	32.9624	807
-330.11	32.9624	807
-330.804	33.2075	813
-329.043	33.2075	813
-329.296	33.4117	818
-327.524	33.4117	818
-327.744	33.6159	823
-325.962	33.6159	823
-328.513	34.0652	834
-326.707	34.0652	834
-324.511	34.0244	833
-322.707	34.0244	833
-322.445	34.1878	837
-320.632	34.1878	837
-318.058	34.1061	835
-315.871	34.0652	834
-314.065	34.0652	834
-311.885	34.0244	833
-310.081	34.0244	833
-307.167	33.9018	830
-305.37	33.9018	830
-302.841	33.8202	828
-301.048	33.8202	828
-298.171	33.6976	825
-296.384	33.6976	825
-294.24	33.6568	824
-292.456	33.6568	824
-290.672	33.6568	824
-289.238	33.6976	825
-287.452	33.6976	825
-286.011	33.7385	826
-284.223	33.7385	826
-282.776	33.7793	827
-280.985	33.7793	827
-279.532	33.8202	828
-277.739	33.8202	828
-275.946	33.8202	828
-274.153	33.8202	828
-256.571	31.8596	780
-254.882	31.8596	780
-252.869	31.8187	779
-251.182	31.8187	779
-249.495	31.8187	779
-216.614	28.5919	700
-215.098	28.5919	700
-213.277	28.5511	699
-211.764	28.5511	699
-209.949	28.5102	698
-208.438	28.5102	698
-206.926	28.5102	698
-205.415	28.5102	698
-203.659	30.5117	747
-202.042	30.5117	747
-201.229	30.6342	750
-199.605	30.6342	750
-198.509	30.7159	752
-196.881	30.7159	752
-195.771	30.7976	754
-194.139	30.7976	754
-192.506	30.7976	754
-190.873	30.7976	754
-189.491	30.8384	755
-187.857	30.8384	755
-186.222	30.8384	755
-184.831	30.8793	756
-183.194	30.8793	756
-181.557	30.8793	756
-179.92	30.8793	756
-178.283	30.8793	756
-176.646	30.8793	756
-175.24	30.9201	757
-173.601	30.9201	757
-171.962	30.9201	757
-170.323	30.9201	757
-168.461	30.8793	756
-166.824	30.8793	756
-165.187	30.8793	756
-163.549	30.8793	756
-162.127	30.9201	757
-160.487	30.9201	757
-158.848	30.9201	757
-157.209	30.9201	757
-155.981	31.0018	759
-154.54	31.0427	760
-152.895	31.0427	760
-151.448	31.0835	761
-149.8	31.0835	761
-148.542	31.1652	763
-146.889	31.1652	763
-145.618	31.2469	765
-143.961	31.2469	765
-142.677	31.3286	767
-141.016	31.3286	767
-139.9	31.4511	770
-138.233	31.4511	770
-136.92	31.5328	772
-135.248	31.5328	772
-133.923	31.6145	774
-132.247	31.6145	774
-130.908	31.6962	776
-129.228	31.6962	776
-133.662	36.0667	883
-131.75	36.0667	883
-138.219	38.3949	940
-136.184	38.3949	940
-134.434	38.4766	942
-132.394	38.4766	942
-130.907	38.6399	946
-128.859	38.6399	946
-127.481	38.8442	951
-126.872	39.2935	962
-124.789	39.2935	962
-123.344	39.4977	967
-121.25	39.4977	967
-121.374	40.2329	985
-119.241	40.2329	985
-117.583	40.3963	989
-115.442	40.3963	989
-113.644	40.5188	992
-111.496	40.5188	992
-109.678	40.6414	995
-107.524	40.6414	995
-105.899	40.8456	1000
-103.733	40.8456	1000
-101.872	40.9681	1003
-99.7004	40.9681	1003
-96.4589	40.5188	992
-94.3108	40.5188	992
-90.3975	39.7428	973
-88.2905	39.7428	973
-86.3607	39.8245	975
-84.2494	39.8245	975
-83.1491	40.3146	987
-81.0118	40.3146	987
-80.3929	41.0907	1006
-78.2144	41.0907	1006
-76.2628	41.2132	1009
-74.0779	41.2132	1009
-71.4654	40.9681	1003
-69.2935	40.9681	1003
-66.787	40.7639	998
-64.6259	40.7639	998
-62.7152	40.9273	1002
-60.5454	40.9273	1002
-59.5991	41.785	1023
-57.3839	41.785	1023
-54.9529	41.6217	1019
-52.7463	41.6217	1019
-49.399	40.6822	996
-47.2423	40.6822	996
-45.674	41.2132	1009
-43.489	41.2132	1009
-41.3451	41.2541	1010
-39.158	41.2541	1010
-37.0441	41.3357	1012
-34.8527	41.3357	1012
-32.6936	41.3766	1013
-30.5	41.3766	1013
-28.5579	41.7442	1022
-26.3448	41.7442	1022
-24.2971	42.0301	1029
-22.0688	42.0301	1029
-20.2262	42.847	1049
-17.9547	42.847	1049
-16.356	44.6851	1094
-13.987	44.6851	1094
-12.0534	46.3598	1135
-9.59565	46.3598	1135
-7.21336	46.8499	1147
-4.72961	46.8499	1147
-2.25957	47.1358	1154
0.239328	47.1358	1154
2.78094	47.871	1172
5.31882	47.871	1172
7.90363	48.157	1179
10.4567	48.157	1179
12.7228	47.095	1153
15.2195	47.095	1153
17.3321	46.0738	1128
19.7747	46.0738	1128
22.0598	45.7471	1120
24.4851	45.7471	1120
26.574	45.1752	1106
28.9689	45.1752	1106
31.3355	45.1344	1105
33.7283	45.1344	1105
36.8076	45.9921	1126
39.2458	45.9921	1126
41.0918	45.3386	1110
43.4954	45.3386	1110
45.1961	44.6442	1093
47.5629	44.6442	1093
50.0668	44.7668	1096
52.4401	44.7668	1096
54.5133	44.5217	1090
56.8736	44.5217	1090
59.2339	44.5217	1090
61.5942	44.5217	1090
65.3627	45.502	1114
67.775	45.502	1114
68.6752	44.5217	1090
71.0355	44.5217	1090
73.1265	44.3583	1086
75.4781	44.3583	1086
77.5431	44.1949	1082
79.8861	44.1949	1082
82.0771	44.1132	1080
84.4158	44.1132	1080
91.5741	46.564	1140
94.0427	46.564	1140
97.9505	47.2584	1157
100.456	47.2584	1157
101.092	46.4006	1136
103.552	46.4006	1136
105.079	45.9921	1126
107.517	45.9921	1126
111.909	46.8091	1146
114.39	46.8091	1146
118.708	47.5443	1164
121.228	47.5443	1164
126.406	48.5654	1189
128.981	48.5654	1189
131.667	48.6063	1190
134.243	48.6063	1190
133.601	47.4626	1162
136.117	47.4626	1162
122.423	31.1652	763
124.075	31.1652	763
125.727	31.1652	763
127.379	31.1652	763
129.031	31.1652	763
130.684	31.1652	763
676.044	64.3727	1576
679.457	64.3727	1576
684.169	64.4952	1579
687.588	64.4952	1579
691.883	64.5769	1581
695.306	64.5769	1581
699.172	64.6177	1582
702.598	64.6177	1582
706.47	64.6586	1583
709.897	64.6586	1583
713.776	64.6994	1584
718.112	64.7811	1586
721.546	64.7811	1586
726.352	64.9037	1589
729.792	64.9037	1589
734.156	64.9853	1591
737.601	64.9853	1591
740.581	64.9445	1590
744.024	64.9445	1590
746.057	64.822	1587
749.493	64.822	1587
750.557	64.6177	1582
753.983	64.6177	1582
756.93	64.5769	1581
760.354	64.5769	1581
763.777	64.5769	1581
767.201	64.5769	1581
769.649	64.4952	1579
773.069	64.4952	1579
773.537	64.2501	1573
776.943	64.2501	1573
777.373	64.0051	1567
780.766	64.0051	1567
782.158	63.8417	1563
785.542	63.8417	1563
787.917	63.76	1561
791.298	63.76	1561
793.151	63.6374	1558
796.524	63.6374	1558
798.358	63.5149	1555
801.725	63.5149	1555
802.504	63.3107	1550
805.86	63.3107	1550
807.65	63.1881	1547
811	63.1881	1547
811.718	62.9839	1542
815.057	62.9839	1542
815.743	62.7797	1537
819.071	62.7797	1537
821.329	62.698	1535
824.653	62.698	1535
826.359	62.5755	1532
829.676	62.5755	1532
831.906	62.4938	1530
835.219	62.4938	1530
836.888	62.3712	1527
840.195	62.3712	1527
841.844	62.2487	1524
845.144	62.2487	1524
848.444	62.2487	1524
851.744	62.2487	1524
853.922	62.167	1522
872.313	61.1459	1497
875.554	61.1459	1497
877.622	61.0642	1495
880.859	61.0642	1495
881.731	60.9008	1491
884.96	60.9008	1491
888.188	60.9008	1491
890.819	60.8599	1490
894.045	60.8599	1490
896.67	60.8191	1489
899.894	60.8191	1489
903.118	60.8191	1489
906.343	60.8191	1489
908.956	60.7783	1488
912.178	60.7783	1488
914.17	60.6966	1486
917.388	60.6966	1486
919.986	60.6557	1485
923.202	60.6557	1485
926.418	60.6557	1485
929.633	60.6557	1485
932.849	60.6557	1485
-238.047	20.3018	472
-237.025	20.3018	472
-236.003	20.3018	472
-234.981	20.3018	472
-233.959	20.3018	472
-232.937	20.3018	472
-231.915	20.3018	472
-230.892	20.3018	472
-229.87	20.3018	472
-228.848	20.3018	472
-227.826	20.3018	472
-226.804	20.3018	472
-225.782	20.3018	472
-224.76	20.3018	472
-223.738	20.3018	472
-222.716	20.3018	472
-221.694	20.3018	472
-220.672	20.3018	472
-219.65	20.3018	472
-218.628	20.3018	472
-217.605	20.3018	472
-216.583	20.3018	472
-215.561	20.3018	472
-214.539	20.3018	472
-213.517	20.3018	472
-212.495	20.3018	472
-211.473	20.3018	472
-210.897	20.3449	473
-210.316	20.3879	474
-209.29	20.3879	474
-209.581	20.5169	477
-208.549	20.5169	477
-207.951	20.5599	478
-206.916	20.5599	478
-207.603	20.732	482
-206.56	20.732	482
-343.94	35.7863	832
-342.138	35.7863	832
-340.336	35.7863	832
-336.5	35.5712	827
-334.71	35.5712	827
-331.308	35.3992	823
-329.526	35.3992	823
-329.735	35.6143	828
-327.942	35.6143	828
-326.937	35.7003	830
-325.14	35.7003	830
-324.511	35.8293	833
-322.707	35.8293	833
-321.289	35.8723	834
-319.483	35.8723	834
-317.677	35.8723	834
-315.114	35.7863	832
-313.312	35.7863	832
-309.264	35.5282	826
-307.475	35.5282	826
-306.427	35.6143	828
-304.634	35.6143	828
-301.743	35.4852	825
-299.957	35.4852	825
-297.086	35.3562	822
-295.306	35.3562	822
-292.455	35.2271	819
-290.682	35.2271	819
-289.614	35.3132	821
-287.836	35.3132	821
-287.103	35.4422	824
-285.665	35.4852	825
-283.879	35.4852	825
-282.434	35.5282	826
-280.646	35.5282	826
-278.857	35.5282	826
-277.068	35.5282	826
-275.28	35.5282	826
-273.491	35.5282	826
-256.242	33.5066	779
-254.555	33.5066	779
-252.544	33.4636	778
-250.859	33.4636	778
-248.534	33.3776	776
-220.587	30.2377	703
-219.065	30.2377	703
-217.233	30.1947	702
-215.713	30.1947	702
-213.888	30.1517	701
-212.37	30.1517	701
-210.852	30.1517	701
-209.334	30.1517	701
-207.035	31.6571	736
-205.442	31.6571	736
-205.233	31.8722	741
-203.628	31.8722	741
-203.114	32.0442	745
-201.501	32.0442	745
-201.229	32.2593	750
-199.605	32.2593	750
-198.509	32.3453	752
-196.881	32.3453	752
-195.771	32.4313	754
-194.139	32.4313	754
-192.506	32.4313	754
-190.873	32.4313	754
-189.491	32.4744	755
-187.857	32.4744	755
-186.222	32.4744	755
-184.831	32.5174	756
-183.194	32.5174	756
-181.557	32.5174	756
-179.92	32.5174	756
-178.283	32.5174	756
-176.646	32.5174	756
-175.24	32.5604	757
-173.601	32.5604	757
-171.962	32.5604	757
-170.323	32.5604	757
-168.461	32.5174	756
-166.824	32.5174	756
-165.187	32.5174	756
-163.549	32.5174	756
-162.127	32.5604	757
-160.487	32.5604	757
-158.848	32.5604	757
-157.209	32.5604	757
-155.981	32.6464	759
-154.54	32.6894	760
-152.895	32.6894	760
-151.448	32.7324	761
-149.8	32.7324	761
-148.542	32.8185	763
-146.889	32.8185	763
-145.618	32.9045	765
-143.961	32.9045	765
-142.677	32.9905	767
-141.016	32.9905	767
-139.9	33.1195	770
-138.233	33.1195	770
-136.92	33.2056	772
-135.248	33.2056	772
-133.923	33.2916	774
-132.247	33.2916	774
-130.908	33.3776	776
-129.228	33.3776	776
-133.662	37.9799	883
-131.75	37.9799	883
-138.219	40.4316	940
-136.184	40.4316	940
-134.434	40.5177	942
-132.394	40.5177	942
-130.907	40.6897	946
-128.859	40.6897	946
-127.481	40.9048	951
-126.872	41.3779	962
-124.789	41.3779	962
-123.344	41.593	967
-121.25	41.593	967
-121.374	42.3672	985
-119.241	42.3672	985
-117.583	42.5393	989
-115.442	42.5393	989
-113.644	42.6683	992
-111.496	42.6683	992
-109.678	42.7973	995
-107.524	42.7973	995
-105.899	43.0124	1000
-103.733	43.0124	1000
-101.872	43.1414	1003
-99.7004	43.1414	1003
-96.4589	42.6683	992
-94.3108	42.6683	992
-90.3975	41.8511	973
-88.2905	41.8511	973
-86.3607	41.9371	975
-84.2494	41.9371	975
-83.1491	42.4532	987
-81.0118	42.4532	987
-80.3929	43.2705	1006
-78.2144	43.2705	1006
-76.2628	43.3995	1009
-74.0779	43.3995	1009
-71.4654	43.1414	1003
-69.2935	43.1414	1003
-66.787	42.9264	998
-64.6259	42.9264	998
-62.7152	43.0984	1002
-60.5454	43.0984	1002
-59.5991	44.0017	1023
-57.3839	44.0017	1023
-54.9529	43.8296	1019
-52.7463	43.8296	1019
-49.399	42.8403	996
-47.2423	42.8403	996
-45.674	43.3995	1009
-43.489	43.3995	1009
-41.3451	43.4425	1010
-39.158	43.4425	1010
-37.0441	43.5285	1012
-34.8527	43.5285	1012
-32.6936	43.5715	1013
-30.5	43.5715	1013
-28.5579	43.9587	1022
-26.3448	43.9587	1022
-24.2971	44.2597	1029
-22.0688	44.2597	1029
-20.2262	45.12	1049
-17.9547	45.12	1049
-16.356	47.0556	1094
-13.987	47.0556	1094
-12.0534	48.8191	1135
-9.59565	48.8191	1135
-7.21336	49.3352	1147
-4.72961	49.3352	1147
-2.25957	49.6363	1154
0.239328	49.6363	1154
2.78094	50.4105	1172
5.31882	50.4105	1172
7.90363	50.7116	1179
10.4567	50.7116	1179
12.7228	49.5933	1153
15.2195	49.5933	1153
17.3321	48.518	1128
19.7747	48.518	1128
22.0598	48.1739	1120
24.4851	48.1739	1120
26.574	47.5717	1106
28.9689	47.5717	1106
31.3355	47.5287	1105
33.7283	47.5287	1105
36.8076	48.4319	1126
39.2458	48.4319	1126
41.0918	47.7438	1110
43.4954	47.7438	1110
45.1961	47.0125	1093
47.5629	47.0125	1093
50.0668	47.1416	1096
52.4401	47.1416	1096
54.5133	46.8835	1090
56.8736	46.8835	1090
59.2339	46.8835	1090
61.5942	46.8835	1090
65.3627	47.9158	1114
67.775	47.9158	1114
68.6752	46.8835	1090
71.0355	46.8835	1090
73.1265	46.7115	1086
75.4781	46.7115	1086
77.5431	46.5394	1082
79.8861	46.5394	1082
82.0771	46.4534	1080
84.4158	46.4534	1080
91.5741	49.0341	1140
94.0427	49.0341	1140
97.9505	49.7653	1157
100.456	49.7653	1157
101.092	48.8621	1136
103.552	48.8621	1136
105.079	48.4319	1126
107.517	48.4319	1126
111.909	49.2922	1146
114.39	49.2922	1146
118.708	50.0664	1164
121.228	50.0664	1164
126.406	51.1417	1189
128.981	51.1417	1189
131.667	51.1847	1190
134.243	51.1847	1190
133.601	49.9804	1162
136.117	49.9804	1162
122.423	32.8185	763
124.075	32.8185	763
125.727	32.8185	763
127.379	32.8185	763
129.031	32.8185	763
130.684	32.8185	763
675.615	67.7445	1575
679.025	67.7445	1575
683.736	67.8736	1578
687.153	67.8736	1578
692.32	68.0456	1582
695.746	68.0456	1582
700.498	68.1746	1585
703.93	68.1746	1585
706.916	68.1316	1584
710.346	68.1316	1584
713.776	68.1316	1584
718.112	68.2177	1586
721.546	68.2177	1586
725.894	68.3037	1588
729.333	68.3037	1588
733.233	68.3467	1589
736.674	68.3467	1589
739.649	68.3037	1588
743.088	68.3037	1588
745.116	68.1746	1585
748.549	68.1746	1585
750.083	68.0026	1581
753.507	68.0026	1581
755.015	67.8305	1577
758.43	67.8305	1577
761.362	67.7875	1576
764.774	67.7875	1576
766.725	67.6585	1573
770.131	67.6585	1573
771.078	67.4434	1568
774.474	67.4434	1568
774.397	67.1423	1561
777.777	67.1423	1561
778.655	66.9273	1556
782.024	66.9273	1556
783.375	66.7552	1552
786.735	66.7552	1552
789.587	66.7122	1551
792.946	66.7122	1551
795.277	66.6262	1549
798.632	66.6262	1549
799.915	66.4541	1545
803.261	66.4541	1545
803.996	66.2391	1540
807.331	66.2391	1540
808.56	66.067	1536
811.886	66.067	1536
813.089	65.895	1532
816.406	65.895	1532
818.654	65.809	1530
821.967	65.809	1530
823.662	65.6799	1527
826.968	65.6799	1527
829.187	65.5939	1525
832.49	65.5939	1525
835.244	65.5509	1524
838.544	65.5509	1524
840.739	65.4649	1522
844.035	65.4649	1522
847.331	65.4649	1522
850.627	65.4649	1522
853.922	65.4649	1522
857.218	65.4649	1522
869.299	64.6476	1503
872.554	64.6476	1503
874.061	64.5186	1500
877.309	64.5186	1500
878.796	64.3895	1497
882.037	64.3895	1497
882.914	64.2175	1493
886.147	64.2175	1493
889.38	64.2175	1493
891.417	64.1315	1491
894.646	64.1315	1491
897.874	64.1315	1491
901.103	64.1315	1491
904.331	64.1315	1491
907.56	64.1315	1491
910.178	64.0885	1490
913.404	64.0885	1490
915.401	64.0024	1488
918.623	64.0024	1488
921.225	63.9594	1487
924.445	63.9594	1487
927.041	63.9164	1486
930.259	63.9164	1486
933.477	63.9164	1486
-238.047	21.3246	472
-237.025	21.3246	472
-236.003	21.3246	472
-234.981	21.3246	472
-233.959	21.3246	472
-232.937	21.3246	472
-231.915	21.3246	472
-230.892	21.3246	472
-229.87	21.3246	472
-228.848	21.3246	472
-227.826	21.3246	472
-226.804	21.3246	472
-225.782	21.3246	472
-224.76	21.3246	472
-223.738	21.3246	472
-222.716	21.3246	472
-221.694	21.3246	472
-220.672	21.3246	472
-219.65	21.3246	472
-218.628	21.3246	472
-217.605	21.3246	472
-216.583	21.3246	472
-215.561	21.3246	472
-214.539	21.3246	472
-213.517	21.3246	472
-212.495	21.3246	472
-211.473	21.3246	472
-210.897	21.3698	473
-210.316	21.4149	474
-209.29	21.4149	474
-209.581	21.5505	477
-208.549	21.5505	477
-207.951	21.5956	478
-206.916	21.5956	478
-207.603	21.7764	482
-206.56	21.7764	482
-343.94	37.5891	832
-342.138	37.5891	832
-340.336	37.5891	832
-336.5	37.3632	827
-334.71	37.3632	827
-331.308	37.1825	823
-329.526	37.1825	823
-329.735	37.4084	828
-327.942	37.4084	828
-326.937	37.4987	830
-325.14	37.4987	830
-324.511	37.6343	833
-322.707	37.6343	833
-321.289	37.6794	834
-319.483	37.6794	834
-317.677	37.6794	834
-315.114	37.5891	832
-313.312	37.5891	832
-309.264	37.318	826
-307.475	37.318	826
-306.427	37.4084	828
-304.634	37.4084	828
-301.743	37.2728	825
-299.957	37.2728	825
-297.086	37.1373	822
-295.306	37.1373	822
-292.455	37.0017	819
-290.682	37.0017	819
-289.614	37.0921	821
-287.836	37.0921	821
-287.103	37.2276	824
-285.665	37.2728	825
-283.879	37.2728	825
-282.434	37.318	826
-280.646	37.318	826
-278.857	37.318	826
-277.068	37.318	826
-275.28	37.318	826
-273.491	37.318	826
-256.242	35.1946	779
-254.555	35.1946	779
-252.544	35.1494	778
-250.859	35.1494	778
-248.534	35.059	776
-220.587	31.761	703
-219.065	31.761	703
-217.233	31.7158	702
-215.713	31.7158	702
-213.888	31.6706	701
-212.37	31.6706	701
-210.852	31.6706	701
-209.334	31.6706	701
-207.035	33.2519	736
-205.442	33.2519	736
-205.233	33.4778	741
-203.628	33.4778	741
-203.114	33.6585	745
-201.501	33.6585	745
-200.961	33.8392	749
-199.339	33.8392	749
-198.773	34.0199	753
-197.142	34.0199	753
-196.291	34.1555	756
-194.654	34.1555	756
-193.272	34.2006	757
-191.633	34.2006	757
-189.993	34.2006	757
-188.354	34.2006	757
-186.715	34.2006	757
-184.831	34.1555	756
-183.194	34.1555	756
-181.557	34.1555	756
-179.92	34.1555	756
-178.047	34.1103	755
-176.412	34.1103	755
-175.009	34.1555	756
-173.372	34.1555	756
-171.508	34.1103	755
-169.873	34.1103	755
-168.238	34.1103	755
-166.603	34.1103	755
-164.968	34.1103	755
-163.333	34.1103	755
-161.912	34.1555	756
-160.275	34.1555	756
-158.848	34.2006	757
-157.209	34.2006	757
-155.981	34.291	759
-154.54	34.3362	760
-152.895	34.3362	760
-151.647	34.4265	762
-149.997	34.4265	762
-148.542	34.4717	763
-146.889	34.4717	763
-145.428	34.5169	764
-143.773	34.5169	764
-142.491	34.6073	766
-140.832	34.6073	766
-139.718	34.7428	769
-138.053	34.7428	769
-137.097	34.9235	773
-135.424	34.9235	773
-133.923	34.9687	774
-132.247	34.9687	774
-130.739	35.0139	775
-129.061	35.0139	775
-127.547	35.059	776
-125.867	35.059	776
-133.662	39.8932	883
-131.75	39.8932	883
-138.219	42.4684	940
-136.184	42.4684	940
-134.434	42.5588	942
-132.394	42.5588	942
-130.354	42.5588	942
-128.314	42.5588	942
-126.408	42.604	943
-125.553	43.0106	952
-123.492	43.0106	952
-121.94	43.1913	956
-119.87	43.1913	956
-119.648	43.869	971
-117.546	43.869	971
-116.513	44.2756	980
-114.391	44.2756	980
-112.613	44.4111	983
-110.484	44.4111	983
-105.379	43.1913	956
-103.309	43.1913	956
-103.463	44.1401	977
-101.347	44.1401	977
-98.5206	43.8238	970
-96.4202	43.8238	970
-92.2777	42.875	949
-90.2227	42.875	949
-88.7252	43.1461	955
-86.6572	43.1461	955
-85.6521	43.6883	967
-83.5582	43.6883	967
-81.7169	43.8238	970
-79.6164	43.8238	970
-77.3562	43.7334	968
-75.26	43.7334	968
-73.8441	44.1401	977
-71.7285	44.1401	977
-70.5392	44.7274	990
-68.3954	44.7274	990
-65.9839	44.5467	986
-63.8488	44.5467	986
-61.2756	44.2304	979
-59.1556	44.2304	979
-57.1522	44.3208	981
-55.0279	44.3208	981
-52.6879	44.1401	977
-50.5723	44.1401	977
-48.3575	44.0497	975
-46.2462	44.0497	975
-44.7686	44.6822	989
-42.627	44.6822	989
-40.772	44.9985	996
-38.6152	44.9985	996
-36.8977	45.5406	1008
-34.715	45.5406	1008
-32.6613	45.7213	1012
-30.4699	45.7213	1012
-28.3344	45.8117	1014
-26.1386	45.8117	1014
-23.9665	45.8569	1015
-21.7686	45.8569	1015
-19.802	46.399	1027
-17.5782	46.399	1027
-15.6084	47.1671	1044
-13.3477	47.1671	1044
-11.6499	49.5616	1097
-9.27438	49.5616	1097
-6.98067	50.1489	1110
-4.57704	50.1489	1110
-2.20475	50.8718	1126
0.233521	50.8718	1126
2.67416	50.9169	1127
5.1146	50.9169	1127
7.6824	51.7753	1146
10.164	51.7753	1146
12.2594	50.1941	1111
14.6651	50.1941	1111
16.8558	49.5616	1097
19.2313	49.5616	1097
21.331	48.9291	1083
23.6762	48.9291	1083
25.5888	48.1158	1065
27.895	48.1158	1065
30.4281	48.4773	1073
32.7516	48.4773	1073
35.2385	48.7032	1078
37.5728	48.7032	1078
39.9072	48.7032	1078
42.2415	48.7032	1078
44.4518	48.5676	1075
46.7796	48.5676	1075
49.3815	48.8387	1081
51.7224	48.8387	1081
53.7631	48.5676	1075
56.0909	48.5676	1075
58.6905	48.7935	1080
61.0292	48.7935	1080
63.7199	49.0646	1086
66.0715	49.0646	1086
67.7931	48.6128	1076
70.1231	48.6128	1076
72.3184	48.5224	1074
74.6441	48.5224	1074
76.8981	48.4773	1073
79.2216	48.4773	1073
81.4691	48.4321	1072
83.7905	48.4321	1072
86.2725	48.5224	1074
88.5981	48.5224	1074
87.8761	46.896	1038
90.1238	46.896	1038
98.5118	50.0134	1107
100.909	50.0134	1107
103.679	50.1941	1111
106.085	50.1941	1111
108.979	50.42	1116
111.396	50.42	1116
115.138	51.0073	1129
117.583	51.0073	1129
121.303	51.5494	1141
123.774	51.5494	1141
126.024	51.4591	1139
128.49	51.4591	1139
133.601	52.4982	1162
136.117	52.4982	1162
135.531	51.3235	1136
137.991	51.3235	1136
122.583	34.5169	764
124.237	34.5169	764
125.892	34.5169	764
127.546	34.5169	764
675.615	71.1572	1575
679.025	71.1572	1575
683.736	71.2927	1578
687.153	71.2927	1578
692.32	71.4735	1582
695.746	71.4735	1582
700.498	71.609	1585
703.93	71.609	1585
706.916	71.5638	1584
710.346	71.5638	1584
713.776	71.5638	1584
718.112	71.6542	1586
721.546	71.6542	1586
725.894	71.7445	1588
729.333	71.7445	1588
733.233	71.7897	1589
736.674	71.7897	1589
739.649	71.7445	1588
743.088	71.7445	1588
745.116	71.609	1585
748.549	71.609	1585
750.083	71.4283	1581
753.507	71.4283	1581
755.015	71.2476	1577
758.43	71.2476	1577
761.362	71.2024	1576
764.774	71.2024	1576
766.725	71.0668	1573
770.131	71.0668	1573
771.078	70.841	1568
774.474	70.841	1568
774.397	70.5247	1561
777.777	70.5247	1561
778.655	70.2988	1556
782.024	70.2988	1556
783.375	70.1181	1552
786.735	70.1181	1552
789.587	70.0729	1551
792.946	70.0729	1551
795.277	69.9826	1549
798.632	69.9826	1549
799.915	69.8018	1545
803.261	69.8018	1545
803.996	69.5759	1540
807.331	69.5759	1540
808.56	69.3952	1536
811.886	69.3952	1536
813.089	69.2145	1532
816.406	69.2145	1532
818.654	69.1241	1530
821.967	69.1241	1530
823.662	68.9886	1527
826.968	68.9886	1527
829.187	68.8982	1525
832.49	68.8982	1525
835.244	68.8531	1524
838.544	68.8531	1524
840.739	68.7627	1522
844.035	68.7627	1522
847.331	68.7627	1522
850.627	68.7627	1522
853.922	68.7627	1522
857.218	68.7627	1522
869.299	67.9043	1503
872.554	67.9043	1503
874.061	67.7688	1500
877.309	67.7688	1500
878.796	67.6332	1497
882.037	67.6332	1497
882.914	67.4525	1493
886.147	67.4525	1493
889.38	67.4525	1493
891.417	67.3622	1491
894.646	67.3622	1491
897.874	67.3622	1491
901.103	67.3622	1491
904.331	67.3622	1491
907.56	67.3622	1491
910.178	67.317	1490
913.404	67.317	1490
915.401	67.2266	1488
918.623	67.2266	1488
921.225	67.1814	1487
924.445	67.1814	1487
927.041	67.1363	1486
930.259	67.1363	1486
933.477	67.1363	1486
-266.432	22.1579	468
-265.419	22.1579	468
-263.84	22.1106	467
-262.829	22.1106	467
-261.818	22.1106	467
-260.807	22.1106	467
-259.795	22.1106	467
-258.784	22.1106	467
-257.773	22.1106	467
-256.762	22.1106	467
-255.75	22.1106	467
-254.739	22.1106	467
-254.271	22.1579	468
-253.258	22.1579	468
-252.244	22.1579	468
-251.231	22.1579	468
-250.218	22.1579	468
-249.204	22.1579	468
-248.191	22.1579	468
-247.177	22.1579	468
-246.164	22.1579	468
-245.15	22.1579	468
-244.137	22.1579	468
-243.124	22.1579	468
-242.628	22.2053	469
-241.612	22.2053	469
-241.109	22.2526	470
-240.092	22.2526	470
-239.583	22.3	471
-238.563	22.3	471
-238.047	22.3473	472
-237.025	22.3473	472
-236.003	22.3473	472
-234.981	22.3473	472
-233.959	22.3473	472
-232.937	22.3473	472
-231.915	22.3473	472
-230.892	22.3473	472
-229.87	22.3473	472
-228.848	22.3473	472
-227.826	22.3473	472
-226.804	22.3473	472
-225.782	22.3473	472
-224.76	22.3473	472
-223.738	22.3473	472
-222.716	22.3473	472
-221.694	22.3473	472
-220.672	22.3473	472
-219.65	22.3473	472
-218.628	22.3473	472
-217.605	22.3473	472
-216.583	22.3473	472
-215.561	22.3473	472
-214.085	22.3	471
-213.065	22.3	471
-212.045	22.3	471
-211.025	22.3	471
-210.005	22.3	471
-209.872	22.3946	473
-208.848	22.3946	473
-209.581	22.584	477
-208.549	22.584	477
-208.386	22.6787	479
-207.349	22.6787	479
-207.603	22.8208	482
-206.56	22.8208	482
-207.648	23.0575	487
-206.593	23.0575	487
-344.605	39.6759	838
-342.791	39.6759	838
-340.976	39.6759	838
-339.162	39.6759	838
-336.139	39.5339	835
-334.331	39.5339	835
-331.328	39.3918	832
-329.527	39.3918	832
-326.937	39.2972	830
-325.14	39.2972	830
-322.563	39.2025	828
-320.77	39.2025	828
-318.207	39.1078	826
-316.418	39.1078	826
-313.868	39.0131	824
-311.326	38.9184	822
-309.546	38.9184	822
-307.017	38.8237	820
-305.242	38.8237	820
-303.466	38.8237	820
-301.69	38.8237	820
-299.549	38.7763	819
-297.776	38.7763	819
-295.641	38.729	818
-293.869	38.729	818
-292.455	38.7763	819
-290.682	38.7763	819
-289.261	38.8237	820
-287.485	38.8237	820
-286.058	38.871	821
-285.319	39.0131	824
-283.535	39.0131	824
-282.092	39.0604	825
-280.306	39.0604	825
-278.182	39.0131	824
-276.397	39.0131	824
-274.613	39.0131	824
-272.829	39.0131	824
-255.584	36.7878	777
-253.902	36.7878	777
-251.895	36.7405	776
-250.214	36.7405	776
-248.534	36.7405	776
-246.217	36.6458	774
-244.541	36.6458	774
-240.983	36.3617	768
-239.32	36.3617	768
-217.852	33.3316	704
-216.327	33.3316	704
-215.413	33.4263	706
-213.884	33.4263	706
-214.461	33.7577	713
-212.917	33.7577	713
-209.08	34.6572	732
-207.495	34.6572	732
-207.035	34.8466	736
-205.442	34.8466	736
-204.956	35.036	740
-203.353	35.036	740
-202.841	35.2254	744
-201.23	35.2254	744
-200.424	35.3674	747
-198.807	35.3674	747
-198.509	35.6042	752
-196.881	35.6042	752
-196.291	35.7936	756
-194.654	35.7936	756
-193.272	35.8409	757
-191.633	35.8409	757
-189.993	35.8409	757
-188.354	35.8409	757
-186.715	35.8409	757
-184.831	35.7936	756
-183.194	35.7936	756
-181.557	35.7936	756
-179.92	35.7936	756
-178.047	35.7462	755
-176.412	35.7462	755
-175.009	35.7936	756
-173.372	35.7936	756
-171.508	35.7462	755
-169.873	35.7462	755
-168.238	35.7462	755
-166.603	35.7462	755
-164.968	35.7462	755
-163.333	35.7462	755
-161.912	35.7936	756
-160.275	35.7936	756
-158.848	35.8409	757
-157.209	35.8409	757
-155.981	35.9356	759
-154.54	35.9829	760
